ply
format ascii 1.0
element vertex 1421
property float32 x
property float32 y
property float32 z
property float32 CosAngle
property uint32 ObjIdx
property uint32 ObjTag
end_header
3.2594 8.8947 0.8019 0.9381 0 1
3.0365 8.8963 0.7958 0.9453 0 1
2.8169 8.8978 0.7901 0.9521 0 1
2.5857 8.8493 0.7804 0.9585 0 1
2.3329 8.7011 0.7626 0.9643 0 1
2.1262 8.7025 0.7584 0.9697 0 1
1.8786 8.5085 0.7376 0.9746 0 1
1.6806 8.5098 0.7343 0.9790 0 1
1.5085 8.6503 0.7433 0.1804 0 1
1.3370 8.8269 0.7557 0.9863 0 1
1.1363 8.8282 0.7535 0.9893 0 1
0.9366 8.8296 0.7516 0.9917 0 1
0.7378 8.8309 0.7502 0.9937 0 1
0.5397 8.8323 0.7491 0.9951 0 1
0.3401 8.7837 0.7441 0.9961 0 1
0.1447 8.8350 0.7480 0.9965 0 1
-0.0522 8.7863 0.7438 0.9965 0 1
-0.2449 8.6614 0.7335 0.9960 0 1
-0.4387 8.6627 0.7343 0.9950 0 1
-0.6285 8.6045 0.7303 0.2496 0 1
-0.8213 8.5972 0.7311 0.9914 0 1
-1.0156 8.5985 0.7329 0.9889 0 1
-1.2110 8.5998 0.7352 0.9859 0 1
-1.4076 8.6008 0.7378 0.9852 0 1
-1.6055 8.6008 0.7407 0.9813 0 1
-1.8050 8.6008 0.7439 0.9770 0 1
-2.0065 8.6007 0.7476 0.9722 0 1
-2.2100 8.6007 0.7517 0.9669 0 1
-2.4159 8.6006 0.7562 0.9611 0 1
-2.6244 8.6006 0.7612 0.9548 0 1
-2.8357 8.6005 0.7666 0.9481 0 1
-3.0360 8.5605 0.7689 0.5483 0 1
-3.2164 8.4643 0.7665 0.5500 0 1
-3.3955 8.3681 0.7645 0.5514 0 1
-3.5908 8.3120 0.7665 0.9122 0 1
-3.8139 8.3135 0.7743 0.9030 0 1
-4.1287 8.4941 0.7995 0.8282 0 1
-4.3280 8.4207 0.8015 0.9014 0 1
-4.5570 8.3995 0.8089 0.8931 0 1
-4.7957 8.3873 0.8179 0.8618 0 1
-5.0975 8.4704 0.8369 0.8504 0 1
-5.3061 5.5272 0.6486 0.6552 0 9
-5.3915 5.3709 0.6442 0.9587 0 9
-5.5823 5.3180 0.6527 0.6937 0 9
-6.6656 -6.8847 0.8112 0.6101 0 9
-6.3843 -7.2123 0.8154 0.8003 0 9
-6.2826 -7.4249 0.8234 0.5231 0 9
6.2153 5.4344 0.6989 0.4323 0 5
4.6899 8.6850 0.8356 0.8801 0 1
4.4433 8.6866 0.8260 0.8903 0 1
4.2022 8.6883 0.8170 0.9001 0 1
3.9661 8.6899 0.8086 0.9094 0 1
3.7347 8.6915 0.8008 0.9183 0 1
3.5660 8.8377 0.8067 0.3754 0 1
3.3598 8.8940 0.8048 0.9347 0 1
3.1353 8.8956 0.7984 0.9422 0 1
2.9143 8.8971 0.7925 0.9492 0 1
2.6964 8.8986 0.7871 0.9557 0 1
2.4256 8.7005 0.7646 0.9618 0 1
2.2179 8.7019 0.7602 0.9674 0 1
1.9673 8.5078 0.7392 0.9725 0 1
1.7685 8.5092 0.7357 0.9771 0 1
1.5715 8.5105 0.7326 0.9812 0 1
1.4268 8.8263 0.7569 0.9849 0 1
1.2255 8.8276 0.7544 0.9880 0 1
1.0254 8.8290 0.7524 0.9907 0 1
0.8262 8.8303 0.7508 0.9929 0 1
0.6278 8.8317 0.7495 0.9945 0 1
0.4300 8.8330 0.7486 0.9957 0 1
0.2326 8.8344 0.7481 0.9964 0 1
0.0351 8.7857 0.7437 0.9966 0 1
-0.1588 8.6609 0.7333 0.9963 0 1
-0.3524 8.6622 0.7339 0.9955 0 1
6.2891 5.3629 0.5125 0.8887 0 5
4.8295 8.6844 0.6162 0.8757 0 1
4.5796 8.6861 0.6089 0.8861 0 1
4.3355 8.6878 0.6021 0.8962 0 1
4.0966 8.6894 0.5957 0.9058 0 1
3.8627 8.6910 0.5898 0.9149 0 1
3.6332 8.6926 0.5842 0.9236 0 1
3.4861 8.8936 0.5923 0.9318 0 1
3.2596 8.8951 0.5875 0.9396 0 1
3.0366 8.8966 0.5829 0.9469 0 1
2.8170 8.8981 0.5788 0.9537 0 1
2.5421 8.7000 0.5620 0.9600 0 1
2.3330 8.7015 0.5586 0.9659 0 1
2.0786 8.5075 0.5431 0.9713 0 1
1.8786 8.5088 0.5403 0.9762 0 1
1.6806 8.5102 0.5379 0.9806 0 1
1.5304 8.7759 0.5524 0.9845 0 1
1.3295 8.7773 0.5505 0.9879 0 1
1.1299 8.7786 0.5489 0.9909 0 1
0.9366 8.8300 0.5506 0.9933 0 1
0.7378 8.8313 0.5495 0.9953 0 1
0.5397 8.8326 0.5487 0.9967 0 1
0.3401 8.7840 0.5451 0.9977 0 1
0.1442 8.8036 0.5460 0.9982 0 1
-0.0524 8.8049 0.5460 0.9981 0 1
-0.2490 8.8063 0.5463 0.9976 0 1
-0.4476 8.8393 0.5488 0.9966 0 1
-0.6422 8.7907 0.5466 0.9950 0 1
-0.8279 8.6658 0.5398 0.9930 0 1
-1.0237 8.6671 0.5412 0.9905 0 1
-1.2206 8.6684 0.5428 0.9875 0 1
-1.4077 8.6015 0.5405 0.9840 0 1
-1.6059 8.6029 0.5427 0.9800 0 1
-1.8058 8.6042 0.5452 0.9755 0 1
-2.0076 8.6056 0.5480 0.9705 0 1
-2.2113 8.6058 0.5510 0.9679 0 1
-2.4174 8.6058 0.5543 0.9621 0 1
-2.6260 8.6058 0.5579 0.9558 0 1
-2.8374 8.6057 0.5619 0.9491 0 1
-3.0521 8.6057 0.5662 0.9419 0 1
-3.2465 8.5435 0.5667 0.9307 0 1
-3.4673 8.5450 0.5718 0.9224 0 1
-3.7060 8.5785 0.5795 0.5338 0 1
-3.8893 8.4779 0.5784 0.5348 0 1
-4.0719 8.3772 0.5776 0.5355 0 1
-4.2747 8.3170 0.5799 0.8847 0 1
-4.5131 8.3185 0.5869 0.8742 0 1
-4.8608 8.5012 0.6073 0.8001 0 1
-5.0687 8.4227 0.6096 0.8696 0 1
-5.3143 8.4003 0.6164 0.8600 0 1
-5.2509 5.4698 0.4702 0.6631 0 9
-5.3671 5.3466 0.4698 0.9647 0 9
-5.5807 5.3166 0.4780 0.6950 0 9
-7.0946 -7.0078 0.6184 0.4010 0 9
-6.9106 -7.1378 0.6161 0.7621 0 9
-6.6792 -7.2143 0.6097 0.7720 0 9
-6.5738 -7.4263 0.6150 0.3070 0 9
4.2036 -9.0152 0.6168 0.9976 0 5
4.6901 8.6854 0.6121 0.8815 0 1
4.4435 8.6871 0.6051 0.8918 0 1
4.2024 8.6887 0.5985 0.9016 0 1
3.9663 8.6903 0.5924 0.9109 0 1
3.7348 8.6919 0.5866 0.9198 0 1
3.5681 8.8430 0.5913 0.9282 0 1
3.3600 8.8944 0.5896 0.9362 0 1
3.1355 8.8960 0.5849 0.9437 0 1
2.9144 8.8975 0.5806 0.9507 0 1
2.6965 8.8990 0.5766 0.9573 0 1
2.4257 8.7008 0.5601 0.9633 0 1
2.2180 8.7022 0.5569 0.9689 0 1
1.9674 8.5082 0.5415 0.9740 0 1
1.7686 8.5096 0.5390 0.9787 0 1
1.5715 8.5109 0.5367 0.9828 0 1
1.4188 8.7767 0.5513 0.9865 0 1
1.2186 8.7780 0.5495 0.9896 0 1
1.0254 8.8294 0.5512 0.9923 0 1
0.8262 8.8307 0.5500 0.9945 0 1
0.6278 8.8321 0.5491 0.9961 0 1
0.4300 8.8334 0.5484 0.9973 0 1
0.2317 8.8030 0.5461 0.9980 0 1
0.0352 8.8043 0.5460 0.9982 0 1
-0.1614 8.8057 0.5461 0.9979 0 1
-0.3583 8.8070 0.5466 0.9971 0 1
0.7349 -8.2302 0.3258 0.7136 0 19
5.9009 -0.0491 0.2327 0.0267 24 10
5.9601 0.0835 0.2350 0.0264 24 10
7.5222 5.5901 0.3695 0.9936 0 19
7.4686 5.8135 0.3732 0.4213 0 19
6.3168 5.3866 0.3273 0.9338 0 5
4.8297 8.6848 0.3918 0.8766 0 1
4.5799 8.6865 0.3872 0.8871 0 1
4.3357 8.6882 0.3829 0.8972 0 1
4.0968 8.6898 0.3788 0.9068 0 1
3.8628 8.6914 0.3750 0.9159 0 1
3.6833 8.8125 0.3766 0.3756 0 1
3.4863 8.8940 0.3767 0.9328 0 1
3.2597 8.8955 0.3736 0.9406 0 1
3.0368 8.8970 0.3707 0.9479 0 1
2.8171 8.8985 0.3680 0.9547 0 1
2.5422 8.7004 0.3574 0.9611 0 1
2.3331 8.7018 0.3552 0.9669 0 1
2.0786 8.5078 0.3453 0.9723 0 1
1.8787 8.5092 0.3436 0.9772 0 1
1.6807 8.5105 0.3421 0.9817 0 1
1.5392 8.8262 0.3533 0.9856 0 1
1.3371 8.8276 0.3521 0.9890 0 1
1.1363 8.8290 0.3510 0.9920 0 1
0.9367 8.8303 0.3501 0.9944 0 1
0.7337 8.7817 0.3475 0.9964 0 1
0.5367 8.7831 0.3470 0.9978 0 1
0.3421 8.8344 0.3486 0.9988 0 1
0.1442 8.8040 0.3472 0.9992 0 1
-0.0524 8.8053 0.3472 0.9992 0 1
-0.2490 8.8067 0.3474 0.9987 0 1
-0.4460 8.8080 0.3478 0.9977 0 1
-0.6435 8.8093 0.3483 0.9961 0 1
-0.8417 8.8107 0.3490 0.9941 0 1
-1.0408 8.8120 0.3499 0.9916 0 1
-1.2455 8.8451 0.3522 0.9886 0 1
-1.4396 8.7965 0.3515 0.9851 0 1
-1.6187 8.6715 0.3478 0.9811 0 1
-1.8202 8.6728 0.3494 0.9766 0 1
-2.0133 8.6299 0.3494 0.2436 0 1
-2.2117 8.6073 0.3504 0.9661 0 1
-2.4182 8.6087 0.3526 0.9602 0 1
-2.6273 8.6101 0.3550 0.9538 0 1
-2.8392 8.6110 0.3575 0.9496 0 1
-3.0522 8.6062 0.3601 0.3184 0 1
-3.2466 8.5439 0.3604 0.9317 0 1
-3.4674 8.5454 0.3636 0.9234 0 1
-3.7200 8.6109 0.3699 0.9179 0 1
-3.9503 8.6109 0.3736 0.9088 0 1
-4.1854 8.6108 0.3775 0.8993 0 1
-4.4164 8.5927 0.3810 0.5169 0 1
-4.6047 8.4875 0.3808 0.5172 0 1
-4.7928 8.3821 0.3807 0.5172 0 1
-5.0083 8.3223 0.3830 0.8527 0 1
-5.2660 8.3240 0.3884 0.8409 0 1
-5.2098 5.4270 0.2966 0.9550 0 9
-5.3368 5.3164 0.2970 0.9522 0 9
0.6527 -8.2331 0.3257 0.6918 0 19
4.2159 -9.0417 0.3934 0.7376 0 5
6.0053 -0.1096 0.2368 0.0262 24 10
5.8576 0.0238 0.2310 0.0269 24 10
6.0943 0.1609 0.2404 0.0258 24 10
7.6128 5.5409 0.3713 0.8002 0 19
7.4618 5.6900 0.3700 0.9104 0 19
4.6904 8.6858 0.3892 0.8825 0 1
4.4437 8.6875 0.3848 0.8927 0 1
4.2025 8.6891 0.3806 0.9025 0 1
3.9664 8.6907 0.3767 0.9119 0 1
3.7350 8.6923 0.3730 0.9208 0 1
3.5884 8.8933 0.3781 0.9292 0 1
3.3601 8.8948 0.3749 0.9372 0 1
3.1356 8.8964 0.3719 0.9447 0 1
2.9145 8.8979 0.3692 0.9517 0 1
2.6361 8.6998 0.3584 0.9583 0 1
2.4259 8.7012 0.3562 0.9644 0 1
2.2181 8.7026 0.3541 0.9700 0 1
1.9675 8.5086 0.3444 0.9751 0 1
1.7686 8.5099 0.3427 0.9797 0 1
1.6165 8.7544 0.3510 0.1785 0 1
1.4269 8.8270 0.3526 0.9875 0 1
1.2256 8.8284 0.3515 0.9907 0 1
1.0254 8.8297 0.3505 0.9934 0 1
0.8263 8.8311 0.3497 0.9956 0 1
0.6243 8.7825 0.3472 0.9972 0 1
0.4276 8.7838 0.3468 0.9984 0 1
0.2326 8.8351 0.3485 0.9991 0 1
0.0352 8.8047 0.3472 0.9993 0 1
-0.1614 8.8060 0.3473 0.9990 0 1
-0.3583 8.8074 0.3476 0.9982 0 1
-0.0020 -8.2241 0.1389 0.9998 0 19
0.5688 -8.5111 0.1441 0.9971 0 19
4.3142 -9.0174 0.1689 0.9944 0 5
6.0392 -0.5914 0.1025 0.0723 24 10
5.4081 -0.4079 0.0916 0.2579 24 10
5.3559 -0.2839 0.0906 0.2707 24 10
5.3068 -0.1626 0.0897 0.2747 24 10
5.2622 -0.0437 0.0889 0.2772 24 10
5.2735 0.0739 0.0891 0.2765 24 10
5.3183 0.1933 0.0899 0.2741 24 10
5.3708 0.3154 0.0909 0.2698 24 10
5.4208 0.4400 0.0919 0.2572 24 10
7.7299 5.4809 0.1601 0.3894 0 19
7.5300 5.5959 0.1585 0.9112 0 19
6.3598 5.4232 0.1412 0.4285 0 5
5.2132 8.4617 0.1679 0.8548 0 1
4.9571 8.4634 0.1657 0.8662 0 1
4.7388 8.5214 0.1647 0.1118 0 1
4.5801 8.6869 0.1659 0.8876 0 1
4.3359 8.6886 0.1640 0.8977 0 1
4.0970 8.6902 0.1623 0.9073 0 1
3.8630 8.6918 0.1607 0.9164 0 1
3.6335 8.6934 0.1592 0.9251 0 1
3.4669 8.8445 0.1605 0.9334 0 1
3.2599 8.8959 0.1600 0.9412 0 1
3.0369 8.8974 0.1588 0.9485 0 1
2.8173 8.8989 0.1577 0.9553 0 1
2.5423 8.7008 0.1531 0.9616 0 1
2.3332 8.7022 0.1522 0.9675 0 1
2.0787 8.5082 0.1479 0.9729 0 1
1.8788 8.5096 0.1472 0.9778 0 1
1.6808 8.5109 0.1465 0.9822 0 1
1.5393 8.8266 0.1513 0.9862 0 1
1.3372 8.8280 0.1508 0.9896 0 1
1.1364 8.8293 0.1504 0.9925 0 1
0.9367 8.8307 0.1500 0.9950 0 1
0.7379 8.8320 0.1497 0.9970 0 1
0.5398 8.8334 0.1495 0.9984 0 1
0.3421 8.8347 0.1493 0.9994 0 1
0.1447 8.8361 0.1493 0.9998 0 1
-0.0522 8.7874 0.1484 0.9998 0 1
-0.2485 8.7887 0.1485 0.9993 0 1
-0.4476 8.8401 0.1495 0.9982 0 1
-0.6435 8.8097 0.1492 0.9967 0 1
-0.8417 8.8110 0.1495 0.9947 0 1
-1.0409 8.8124 0.1499 0.9922 0 1
-1.2411 8.8137 0.1503 0.9892 0 1
-1.4427 8.8151 0.1509 0.9856 0 1
-1.6458 8.8165 0.1515 0.9816 0 1
-1.8573 8.8497 0.1527 0.9772 0 1
-2.0532 8.8010 0.1527 0.9722 0 1
-2.2302 8.6793 0.1514 0.0819 0 1
-2.4375 8.6774 0.1522 0.9608 0 1
-2.6483 8.6788 0.1533 0.9544 0 1
-2.8395 8.6120 0.1532 0.9475 0 1
-3.0298 8.5429 0.1531 0.9401 0 1
-3.2468 8.5443 0.1544 0.9322 0 1
-3.4676 8.5458 0.1558 0.9239 0 1
-3.7223 8.6163 0.1585 0.9179 0 1
-3.9528 8.6163 0.1601 0.9088 0 1
-4.1881 8.6164 0.1618 0.8993 0 1
-4.4286 8.6164 0.1636 0.8893 0 1
-4.6747 8.6164 0.1656 0.8789 0 1
-4.9267 8.6164 0.1677 0.8680 0 1
-5.1953 5.6594 0.1298 0.2821 0 9
-5.1785 5.3943 0.1263 0.9614 0 9
-5.3042 5.2839 0.1265 0.9586 0 9
0.1004 -8.2733 0.1398 0.0131 0 19
0.4823 -8.4833 0.1435 0.9978 0 19
0.6748 -8.5118 0.1442 0.9961 0 19
5.4302 -0.4639 0.0921 0.2566 24 10
5.3809 -0.3389 0.0911 0.2594 24 10
5.3269 -0.2163 0.0901 0.2736 24 10
5.2819 -0.0964 0.0892 0.2761 24 10
5.2543 0.0214 0.0888 0.2442 24 10
5.2982 0.1399 0.0895 0.2752 24 10
5.3449 0.2606 0.0904 0.2713 24 10
5.3988 0.3842 0.0914 0.2584 24 10
5.5886 0.5233 0.0948 0.0962 24 10
7.5913 5.5253 0.1586 0.9924 0 19
7.4597 5.6885 0.1585 0.9133 0 19
6.4069 5.3543 0.1410 0.8812 0 5
5.0703 8.4627 0.1666 0.8612 0 1
4.8179 8.4644 0.1645 0.8723 0 1
4.6906 8.6862 0.1668 0.8830 0 1
4.4439 8.6879 0.1648 0.8933 0 1
4.2027 8.6895 0.1630 0.9031 0 1
3.9666 8.6911 0.1614 0.9124 0 1
3.7352 8.6927 0.1598 0.9213 0 1
3.5684 8.8438 0.1611 0.9298 0 1
3.3603 8.8952 0.1606 0.9377 0 1
3.1358 8.8968 0.1593 0.9453 0 1
2.9147 8.8983 0.1582 0.9523 0 1
2.6362 8.7002 0.1536 0.9589 0 1
2.4260 8.7016 0.1526 0.9650 0 1
2.1684 8.5076 0.1483 0.9706 0 1
1.9676 8.5089 0.1475 0.9757 0 1
1.7687 8.5103 0.1468 0.9803 0 1
1.6205 8.7761 0.1508 0.9845 0 1
1.4270 8.8274 0.1510 0.9881 0 1
1.2256 8.8287 0.1506 0.9913 0 1
1.0255 8.8301 0.1502 0.9940 0 1
0.8263 8.8314 0.1498 0.9961 0 1
0.6279 8.8328 0.1496 0.9978 0 1
0.4276 8.7842 0.1486 0.9990 0 1
0.2326 8.8355 0.1493 0.9997 0 1
0.0353 8.8368 0.1493 0.9999 0 1
-0.1611 8.7882 0.1485 0.9996 0 1
-0.3575 8.7895 0.1486 0.9988 0 1
-0.7390 -8.2309 -0.0465 0.6919 0 19
-0.5926 -8.8030 -0.0497 0.0123 0 19
-0.1914 -8.4783 -0.0477 0.9999 0 19
-0.0021 -8.5069 -0.0479 1.0000 0 19
0.1873 -8.4809 -0.0478 0.9996 0 19
0.5943 -8.8936 -0.0502 0.0698 0 19
6.3932 -0.9157 -0.0364 0.9285 24 10
6.3031 -0.7596 -0.0357 0.0692 24 10
5.1398 -0.5033 -0.0291 0.2378 24 10
5.0835 -0.3835 -0.0287 0.4488 24 10
5.0582 -0.2681 -0.0285 0.4517 24 10
5.0312 -0.1542 -0.0283 0.4485 24 10
5.0073 -0.0416 -0.0282 0.4508 24 10
5.0134 0.0703 -0.0282 0.4502 24 10
5.0379 0.1831 -0.0284 0.4523 24 10
5.0646 0.2974 -0.0286 0.4509 24 10
5.0900 0.4131 -0.0288 0.4480 24 10
5.3073 0.5503 -0.0300 0.1161 24 10
6.4385 0.8132 -0.0365 0.1253 24 10
6.3816 0.9512 -0.0363 0.9294 24 10
7.6861 5.4499 -0.0530 0.8003 0 19
7.5668 5.6233 -0.0531 0.9069 0 19
5.2135 8.4621 -0.0560 0.8549 0 1
4.9574 8.4638 -0.0552 0.8663 0 1
4.7078 8.4655 -0.0545 0.8772 0 1
4.4642 8.4672 -0.0539 0.8877 0 1
4.2262 8.4688 -0.0533 0.8978 0 1
3.9934 8.4704 -0.0527 0.9074 0 1
3.8632 8.6922 -0.0536 0.9165 0 1
3.6337 8.6938 -0.0531 0.9252 0 1
3.4084 8.6953 -0.0526 0.9335 0 1
3.1869 8.6968 -0.0521 0.9412 0 1
2.9689 8.6983 -0.0517 0.9485 0 1
2.7542 8.6997 -0.0514 0.9554 0 1
2.5424 8.7012 -0.0510 0.9617 0 1
2.3333 8.7026 -0.0507 0.9676 0 1
2.0788 8.5085 -0.0493 0.9730 0 1
1.8789 8.5099 -0.0491 0.9779 0 1
1.7260 8.7401 -0.0502 0.1785 0 1
1.5393 8.8270 -0.0504 0.9862 0 1
1.3372 8.8283 -0.0503 0.9897 0 1
1.1364 8.8297 -0.0501 0.9926 0 1
0.9367 8.8311 -0.0500 0.9951 0 1
0.7379 8.8324 -0.0499 0.9970 0 1
0.5367 8.7838 -0.0495 0.9985 0 1
0.3421 8.8351 -0.0498 0.9995 0 1
0.1447 8.8364 -0.0498 0.9999 0 1
-0.0525 8.8378 -0.0498 0.9999 0 1
-0.2499 8.8391 -0.0498 0.9994 0 1
-0.4477 8.8405 -0.0498 0.9983 0 1
-0.6459 8.8418 -0.0499 0.9968 0 1
-0.8400 8.7931 -0.0497 0.9948 0 1
-1.0387 8.7945 -0.0499 0.9923 0 1
-1.2456 8.8459 -0.0503 0.9892 0 1
-1.4427 8.8155 -0.0503 0.9857 0 1
-1.6458 8.8169 -0.0505 0.9817 0 1
-1.8574 8.8500 -0.0509 0.9772 0 1
-2.0650 8.8514 -0.0512 0.9723 0 1
-2.2748 8.8529 -0.0515 0.9668 0 1
-2.4872 8.8543 -0.0518 0.9609 0 1
-2.7023 8.8558 -0.0521 0.9544 0 1
-2.9039 8.8071 -0.0522 0.9475 0 1
-3.0299 8.5432 -0.0510 0.9402 0 1
-3.2469 8.5447 -0.0515 0.9323 0 1
-3.4967 8.6175 -0.0524 0.2323 0 1
-3.7232 8.6183 -0.0529 0.9153 0 1
-3.9545 8.6199 -0.0534 0.9060 0 1
-4.1906 8.6215 -0.0540 0.8964 0 1
-4.4315 8.6220 -0.0546 0.8888 0 1
-4.6777 8.6221 -0.0552 0.8784 0 1
-4.9300 8.6222 -0.0559 0.8675 0 1
-5.1035 5.5594 -0.0425 0.7048 0 9
-5.1475 5.3620 -0.0419 0.9673 0 9
-5.2804 5.2602 -0.0420 0.6832 0 9
-0.6355 -8.2195 -0.0464 0.9975 0 19
-0.0867 -8.5063 -0.0479 1.0000 0 19
0.1033 -8.5076 -0.0479 0.9998 0 19
0.6620 -8.3499 -0.0472 0.9963 0 19
6.3723 -0.9774 -0.0363 0.9133 24 10
6.4190 -0.8384 -0.0364 0.9252 24 10
5.4827 -0.5919 -0.0310 0.0979 24 10
5.0949 -0.4353 -0.0288 0.4474 24 10
5.0694 -0.3193 -0.0286 0.4504 24 10
5.0432 -0.2048 -0.0284 0.4518 24 10
5.0179 -0.0916 -0.0283 0.4498 24 10
5.0028 0.0204 -0.0282 0.4512 24 10
5.0266 0.1327 -0.0283 0.4489 24 10
5.0533 0.2464 -0.0285 0.4507 24 10
5.0787 0.3614 -0.0287 0.4493 24 10
5.1085 0.4784 -0.0289 0.4569 24 10
6.0197 0.6996 -0.0341 0.0724 24 10
6.4019 0.8893 -0.0364 0.9267 24 10
7.8573 5.4547 -0.0539 0.2157 0 19
7.5964 5.5289 -0.0529 0.9919 0 19
6.4245 5.3690 -0.0471 0.9266 0 5
5.0706 8.4631 -0.0555 0.8613 0 1
4.8181 8.4648 -0.0548 0.8724 0 1
4.5719 8.4665 -0.0542 0.8831 0 1
4.3315 8.4681 -0.0536 0.8933 0 1
4.0964 8.4697 -0.0530 0.9031 0 1
3.9407 8.6344 -0.0534 0.1149 0 1
3.7354 8.6931 -0.0533 0.9214 0 1
3.5082 8.6946 -0.0528 0.9298 0 1
3.2851 8.6961 -0.0523 0.9378 0 1
3.0656 8.6976 -0.0519 0.9453 0 1
2.8494 8.6991 -0.0515 0.9524 0 1
2.6363 8.7005 -0.0512 0.9589 0 1
2.4261 8.7020 -0.0509 0.9650 0 1
2.1685 8.5079 -0.0494 0.9706 0 1
1.9677 8.5093 -0.0492 0.9758 0 1
1.7688 8.5107 -0.0489 0.9804 0 1
1.6298 8.8264 -0.0505 0.9846 0 1
1.4270 8.8277 -0.0503 0.9882 0 1
1.2257 8.8291 -0.0502 0.9914 0 1
1.0255 8.8305 -0.0501 0.9941 0 1
0.8263 8.8318 -0.0499 0.9962 0 1
0.6279 8.8332 -0.0499 0.9979 0 1
0.4301 8.8345 -0.0498 0.9991 0 1
0.2326 8.8358 -0.0498 0.9998 0 1
0.0353 8.8372 -0.0498 1.0000 0 1
-0.1620 8.8385 -0.0498 0.9997 0 1
-0.3596 8.8399 -0.0498 0.9988 0 1
-1.2972 -8.2200 -0.2343 0.7088 0 19
-0.9518 -8.4728 -0.2401 0.9941 0 19
-0.7633 -8.5014 -0.2403 0.9962 0 19
-0.5706 -8.4754 -0.2392 0.9978 0 19
-0.4404 -9.8018 -0.2763 0.9989 0 19
-0.0024 -9.8271 -0.2767 0.9996 0 19
0.2170 -9.8286 -0.2768 0.9992 0 19
0.4368 -9.8301 -0.2771 0.9983 0 19
0.6537 -9.7819 -0.2760 0.9970 0 19
4.4002 -8.6932 -0.2744 0.9147 0 9
4.6443 -8.6885 -0.2774 0.8684 0 9
4.8720 -8.6445 -0.2794 0.2818 0 9
5.0525 -8.5146 -0.2788 0.6076 0 9
5.2292 -8.3803 -0.2781 0.8226 0 9
9.3694 -3.3479 -0.2802 0.2753 0 7
9.3765 -3.1162 -0.2782 0.2773 0 7
9.3830 -2.8874 -0.2764 0.2790 0 7
9.3890 -2.6614 -0.2748 0.2807 0 7
9.3945 -2.4377 -0.2733 0.2823 0 7
9.3995 -2.2163 -0.2719 0.2837 0 7
9.4040 -1.9969 -0.2707 0.2850 0 7
9.4080 -1.7792 -0.2696 0.2861 0 7
9.4116 -1.5631 -0.2686 0.2871 0 7
9.4146 -1.3485 -0.2678 0.2880 0 7
5.3496 -0.6447 -0.1517 0.1149 24 10
4.9053 -0.4803 -0.1388 0.4755 24 10
4.8700 -0.3673 -0.1375 0.4798 24 10
4.8441 -0.2568 -0.1366 0.4699 24 10
4.8187 -0.1477 -0.1357 0.4728 24 10
4.7942 -0.0399 -0.1350 0.4707 24 10
4.7999 0.0673 -0.1352 0.4748 24 10
4.8252 0.1754 -0.1360 0.4721 24 10
4.8500 0.2848 -0.1368 0.4707 24 10
4.8789 0.3960 -0.1378 0.4787 24 10
4.9441 0.5126 -0.1400 0.2470 24 10
5.5737 0.7040 -0.1582 0.1102 24 10
9.4139 1.4031 -0.2680 0.2878 0 7
9.4107 1.6182 -0.2689 0.2869 0 7
9.4070 1.8346 -0.2699 0.2858 0 7
9.4029 2.0527 -0.2710 0.2846 0 7
9.3983 2.2726 -0.2723 0.2833 0 7
9.3932 2.4946 -0.2737 0.2819 0 7
9.3876 2.7189 -0.2752 0.2803 0 7
9.3814 2.9456 -0.2769 0.2786 0 7
9.3747 3.1751 -0.2787 0.2768 0 7
9.3675 3.4076 -0.2807 0.2748 0 7
8.0425 5.7026 -0.2776 0.7751 0 19
6.4878 5.2869 -0.2357 0.6459 0 5
6.4255 5.4793 -0.2378 0.2277 0 5
5.2137 8.4625 -0.2799 0.8545 0 1
4.9576 8.4643 -0.2762 0.8659 0 1
4.7080 8.4660 -0.2728 0.8768 0 1
4.4644 8.4676 -0.2695 0.8873 0 1
4.2264 8.4692 -0.2665 0.8974 0 1
3.9936 8.4708 -0.2637 0.9070 0 1
3.7655 8.4723 -0.2611 0.9161 0 1
3.5418 8.4738 -0.2586 0.9248 0 1
3.3222 8.4753 -0.2563 0.9331 0 1
3.1832 8.6866 -0.2605 0.1178 0 1
2.9691 8.6987 -0.2588 0.9481 0 1
2.7543 8.7001 -0.2570 0.9550 0 1
2.5425 8.7015 -0.2553 0.9613 0 1
2.2810 8.5075 -0.2480 0.9672 0 1
2.0789 8.5089 -0.2466 0.9726 0 1
1.8790 8.5103 -0.2454 0.9775 0 1
1.7331 8.7760 -0.2519 0.9819 0 1
1.5394 8.8274 -0.2523 0.9858 0 1
1.3373 8.8287 -0.2514 0.9893 0 1
1.1365 8.8301 -0.2507 0.9922 0 1
0.9368 8.8314 -0.2501 0.9947 0 1
0.7380 8.8328 -0.2496 0.9966 0 1
0.5367 8.7842 -0.2478 0.9981 0 1
0.3421 8.8355 -0.2490 0.9990 0 1
0.1448 8.8368 -0.2489 0.9995 0 1
-0.0525 8.8382 -0.2489 0.9995 0 1
-0.2500 8.8395 -0.2490 0.9989 0 1
-0.4477 8.8408 -0.2493 0.9979 0 1
-0.6459 8.8422 -0.2496 0.9964 0 1
-0.8449 8.8435 -0.2501 0.9944 0 1
-1.0447 8.8449 -0.2508 0.9918 0 1
-1.2457 8.8463 -0.2515 0.9888 0 1
-1.4480 8.8476 -0.2524 0.9853 0 1
-1.6425 8.7990 -0.2520 0.9813 0 1
-1.8574 8.8504 -0.2546 0.9768 0 1
-2.0651 8.8518 -0.2559 0.9718 0 1
-2.2749 8.8533 -0.2574 0.9664 0 1
-2.4873 8.8547 -0.2590 0.9604 0 1
-2.7024 8.8562 -0.2607 0.9540 0 1
-2.8820 8.7409 -0.2592 0.3160 0 1
-3.0300 8.5436 -0.2553 0.9398 0 1
-3.2471 8.5451 -0.2574 0.9319 0 1
-3.5756 8.8121 -0.2678 0.9236 0 1
-3.7611 8.7060 -0.2670 0.0774 0 1
-3.9860 8.6887 -0.2692 0.9057 0 1
-4.2241 8.6903 -0.2721 0.8960 0 1
-4.4323 8.6236 -0.2730 0.8859 0 1
-4.6794 8.6252 -0.2763 0.8753 0 1
-4.9328 8.6270 -0.2798 0.8643 0 1
-5.0610 5.5132 -0.2107 0.7321 0 9
-5.1189 5.3322 -0.2081 0.9888 0 9
-5.2598 5.2397 -0.2091 0.6856 0 9
-1.3801 -8.2141 -0.2345 0.9869 0 19
-0.8485 -8.5008 -0.2406 0.9954 0 19
-0.6573 -8.5021 -0.2401 0.9972 0 19
0.1193 -9.8279 -0.2768 0.9995 0 19
0.3389 -9.8294 -0.2769 0.9988 0 19
0.5589 -9.8309 -0.2773 0.9976 0 19
0.7098 -8.9536 -0.2529 0.9960 0 19
4.0702 -8.7291 -0.2712 0.6056 0 9
4.7809 -8.6836 -0.2791 0.4810 0 9
4.9250 -8.4910 -0.2764 0.5408 0 9
5.0855 -8.3334 -0.2749 0.5274 0 9
9.3661 -3.4521 -0.2811 0.2744 0 7
9.3734 -3.2190 -0.2791 0.2764 0 7
9.3802 -2.9890 -0.2772 0.2783 0 7
9.3864 -2.7617 -0.2755 0.2800 0 7
9.3922 -2.5370 -0.2739 0.2816 0 7
9.3974 -2.3146 -0.2725 0.2831 0 7
9.4021 -2.0943 -0.2712 0.2844 0 7
9.4063 -1.8759 -0.2701 0.2856 0 6
9.4100 -1.6592 -0.2691 0.2867 0 6
9.4133 -1.4439 -0.2682 0.2877 0 7
5.7548 -0.7516 -0.1634 0.0930 24 10
5.0075 -0.5406 -0.1418 0.2438 24 10
4.8856 -0.4174 -0.1381 0.4779 24 10
4.8543 -0.3057 -0.1370 0.4702 24 10
4.8300 -0.1961 -0.1361 0.4715 24 10
4.8047 -0.0877 -0.1353 0.4743 24 10
4.7900 0.0195 -0.1349 0.4711 24 10
4.8139 0.1271 -0.1356 0.4733 24 10
4.8392 0.2360 -0.1364 0.4705 24 10
4.8633 0.3461 -0.1373 0.4806 24 10
4.8985 0.4587 -0.1385 0.4763 24 10
5.1944 0.6037 -0.1472 0.1184 24 10
9.4152 1.3078 -0.2677 0.2882 0 7
9.4122 1.5223 -0.2685 0.2873 0 7
9.4087 1.7381 -0.2694 0.2863 0 6
9.4048 1.9554 -0.2705 0.2852 0 7
9.4004 2.1745 -0.2717 0.2839 0 7
9.3955 2.3955 -0.2730 0.2825 0 7
9.3901 2.6187 -0.2745 0.2810 0 7
9.3842 2.8443 -0.2761 0.2794 0 7
9.3778 3.0725 -0.2779 0.2776 0 7
9.3708 3.3037 -0.2798 0.2757 0 7
8.7875 4.7462 -0.2812 0.2590 0 8
6.6181 5.2844 -0.2385 0.6383 0 5
6.4319 5.3752 -0.2360 0.2294 0 5
5.0708 8.4635 -0.2778 0.8609 0 1
4.8183 8.4652 -0.2743 0.8720 0 1
4.5722 8.4669 -0.2709 0.8827 0 1
4.3317 8.4685 -0.2678 0.8930 0 1
4.0966 8.4701 -0.2649 0.9028 0 1
3.8665 8.4716 -0.2622 0.9121 0 1
3.6409 8.4732 -0.2597 0.9210 0 1
3.4195 8.4747 -0.2573 0.9295 0 1
3.2026 8.4779 -0.2552 0.1203 0 1
3.0657 8.6980 -0.2597 0.9449 0 1
2.8495 8.6995 -0.2578 0.9520 0 1
2.6365 8.7009 -0.2560 0.9585 0 1
2.4262 8.7023 -0.2544 0.9646 0 1
2.1686 8.5083 -0.2472 0.9702 0 1
1.9677 8.5097 -0.2459 0.9754 0 1
1.7783 8.5561 -0.2461 0.1819 0 1
1.6243 8.7969 -0.2519 0.9841 0 1
1.4271 8.8281 -0.2518 0.9878 0 1
1.2257 8.8295 -0.2510 0.9910 0 1
1.0256 8.8308 -0.2503 0.9936 0 1
0.8264 8.8322 -0.2498 0.9958 0 1
0.6279 8.8335 -0.2494 0.9975 0 1
0.4301 8.8349 -0.2491 0.9987 0 1
0.2326 8.8362 -0.2489 0.9994 0 1
0.0353 8.8376 -0.2488 0.9995 0 1
-0.1620 8.8389 -0.2489 0.9992 0 1
-0.3596 8.8402 -0.2491 0.9984 0 1
-2.0596 -8.2091 -0.4292 0.9704 0 19
-1.5358 -8.4958 -0.4378 0.9841 0 19
-1.3409 -8.4971 -0.4363 0.9876 0 19
-0.6613 -9.8222 -0.4993 0.9970 0 19
-0.2218 -9.8252 -0.4984 0.9987 0 19
-0.0024 -9.8267 -0.4984 0.9988 0 19
0.2170 -9.8282 -0.4986 0.9984 0 19
0.4367 -9.8297 -0.4990 0.9975 0 19
0.6570 -9.8312 -0.4997 0.9961 0 19
0.7995 -8.9538 -0.4559 0.9942 0 19
3.5163 -8.8224 -0.4816 0.5647 0 9
3.7110 -8.7384 -0.4815 0.8758 0 9
3.9109 -8.6661 -0.4822 0.5689 0 9
4.1131 -8.5970 -0.4833 0.9492 0 9
4.3685 -8.6306 -0.4906 0.1608 0 9
4.5685 -8.5467 -0.4915 0.3725 0 9
4.7596 -8.4450 -0.4916 0.3165 0 9
4.9563 -8.3525 -0.4926 0.4071 0 9
5.2240 -8.3720 -0.5005 0.7884 0 9
8.5420 -5.1681 -0.5063 0.2741 0 7
8.5619 -4.9225 -0.5009 0.2771 0 7
8.5808 -4.6817 -0.4957 0.2800 0 7
8.5984 -4.4451 -0.4909 0.2828 0 7
8.6151 -4.2127 -0.4863 0.2854 0 7
8.6306 -3.9842 -0.4821 0.2879 0 7
8.6453 -3.7591 -0.4781 0.2903 0 7
8.6589 -3.5374 -0.4744 0.2926 0 7
8.6716 -3.3187 -0.4709 0.2948 0 7
8.6835 -3.1028 -0.4676 0.2968 0 7
8.6944 -2.8895 -0.4646 0.2987 0 7
8.7046 -2.6787 -0.4619 0.3005 0 7
8.7139 -2.4700 -0.4593 0.3022 0 7
8.7224 -2.2633 -0.4570 0.3037 0 7
8.7302 -2.0585 -0.4549 0.3051 0 7
8.7371 -1.8553 -0.4530 0.3064 0 6
8.7434 -1.6535 -0.4513 0.3076 0 6
8.7489 -1.4531 -0.4498 0.3086 0 7
5.6424 -0.8082 -0.2891 0.0750 24 10
4.9167 -0.5925 -0.2512 0.2477 24 10
4.7118 -0.4614 -0.2401 0.5766 24 10
4.6831 -0.3532 -0.2382 0.5812 24 10
4.6542 -0.2467 -0.2364 0.5672 24 10
4.6333 -0.1420 -0.2351 0.5703 24 10
4.6124 -0.0383 -0.2339 0.5910 24 10
4.6177 0.0647 -0.2342 0.5724 24 10
4.6386 0.1686 -0.2354 0.5695 24 10
4.6607 0.2737 -0.2368 0.5552 24 10
4.6904 0.3807 -0.2387 0.5801 24 10
4.7193 0.4893 -0.2406 0.4935 24 10
5.0030 0.6319 -0.2557 0.1226 24 10
8.7525 1.3046 -0.4488 0.3093 0 7
8.7475 1.5041 -0.4501 0.3084 0 7
8.7418 1.7049 -0.4517 0.3073 0 6
8.7354 1.9070 -0.4534 0.3061 0 7
8.7283 2.1106 -0.4554 0.3048 0 7
8.7203 2.3159 -0.4576 0.3034 0 7
8.7116 2.5231 -0.4600 0.3018 0 7
8.7021 2.7323 -0.4626 0.3001 0 7
8.6917 2.9437 -0.4654 0.2983 0 7
8.6805 3.1577 -0.4684 0.2963 0 7
8.6685 3.3742 -0.4717 0.2942 0 7
8.6555 3.5937 -0.4753 0.2920 0 7
8.6416 3.8162 -0.4791 0.2897 0 7
8.6268 4.0422 -0.4831 0.2873 0 7
8.6099 4.2712 -0.4874 0.2923 0 8
8.5809 4.4982 -0.4913 0.2900 0 8
8.5068 4.7044 -0.4930 0.5308 0 8
8.1171 4.7285 -0.4764 0.5493 0 8
8.0620 4.9407 -0.4795 0.2734 0 8
8.0417 5.1787 -0.4851 0.2702 0 8
8.0202 5.4218 -0.4910 0.2670 0 8
7.9974 5.6706 -0.4972 0.2637 0 8
7.6461 5.6822 -0.4831 0.8984 0 19
6.4790 5.2797 -0.4239 0.6462 0 5
6.4405 5.4920 -0.4293 0.7251 0 5
5.2140 8.4629 -0.5041 0.8537 0 1
4.9579 8.4647 -0.4975 0.8651 0 1
4.7082 8.4664 -0.4913 0.8760 0 1
4.4646 8.4680 -0.4855 0.8865 0 1
4.2266 8.4696 -0.4800 0.8965 0 1
3.9937 8.4712 -0.4750 0.9061 0 1
3.7656 8.4727 -0.4702 0.9153 0 1
3.5420 8.4742 -0.4658 0.9240 0 1
3.3223 8.4757 -0.4617 0.9322 0 1
3.1064 8.4772 -0.4579 0.9400 0 1
2.8940 8.4786 -0.4543 0.9472 0 1
2.6846 8.4800 -0.4511 0.9541 0 1
2.4894 8.5197 -0.4501 0.1227 0 1
2.2811 8.5079 -0.4467 0.9663 0 1
2.0790 8.5093 -0.4442 0.9717 0 1
1.8791 8.5106 -0.4420 0.9766 0 1
1.7431 8.8264 -0.4563 0.9810 0 1
1.5342 8.7979 -0.4529 0.9849 0 1
1.3328 8.7992 -0.4513 0.9883 0 1
1.1327 8.8006 -0.4500 0.9913 0 1
0.9337 8.8019 -0.4489 0.9937 0 1
0.7380 8.8332 -0.4495 0.9957 0 1
0.5398 8.8345 -0.4489 0.9972 0 1
0.3409 8.8041 -0.4468 0.9981 0 1
0.1448 8.8372 -0.4482 0.9986 0 1
-0.0525 8.8385 -0.4482 0.9985 0 1
-0.2500 8.8399 -0.4485 0.9980 0 1
-0.4477 8.8412 -0.4489 0.9970 0 1
-0.6459 8.8426 -0.4496 0.9954 0 1
-0.8449 8.8439 -0.4506 0.9934 0 1
-1.0447 8.8453 -0.4517 0.9909 0 1
-1.2457 8.8466 -0.4531 0.9879 0 1
-1.4480 8.8480 -0.4547 0.9844 0 1
-1.6425 8.7993 -0.4540 0.9804 0 1
-1.8575 8.8508 -0.4586 0.9759 0 1
-2.0651 8.8522 -0.4610 0.9709 0 1
-2.2622 8.8035 -0.4610 0.9655 0 1
-2.4733 8.8050 -0.4638 0.9596 0 1
-2.7025 8.8566 -0.4696 0.9531 0 1
-2.8288 8.5795 -0.4581 0.3217 0 1
-3.0302 8.5440 -0.4597 0.9389 0 1
-3.2472 8.5455 -0.4636 0.9311 0 1
-3.5961 8.8626 -0.4851 0.9228 0 1
-3.8294 8.8642 -0.4897 0.9140 0 1
-4.0673 8.8659 -0.4947 0.9048 0 1
-4.3102 8.8675 -0.5000 0.8952 0 1
-4.5328 8.8190 -0.5029 0.8851 0 1
-4.7168 8.6941 -0.5016 0.8745 0 1
-5.0297 5.4790 -0.3772 0.7360 0 9
-5.0984 5.3109 -0.3734 0.9919 0 9
-5.2495 5.2295 -0.3758 0.6972 0 9
-2.0765 -8.7332 -0.4552 0.0121 0 19
-1.6179 -8.4679 -0.4372 0.9823 0 19
-1.4275 -8.4965 -0.4369 0.9861 0 19
-1.2294 -8.4706 -0.4341 0.9894 0 19
-0.7593 -9.8216 -0.4996 0.9963 0 19
-0.5392 -9.8231 -0.4989 0.9977 0 19
-0.3179 -9.7749 -0.4960 0.9985 0 19
-0.1001 -9.8260 -0.4983 0.9988 0 19
0.1193 -9.8275 -0.4984 0.9986 0 19
0.3389 -9.8290 -0.4988 0.9980 0 19
0.5588 -9.8305 -0.4994 0.9968 0 19
0.7076 -8.9259 -0.4541 0.9951 0 19
3.4093 -8.8073 -0.4790 0.7898 0 9
3.8149 -8.6825 -0.4810 0.5598 0 9
3.9753 -8.5255 -0.4771 0.1473 0 9
4.1723 -8.4502 -0.4779 0.5492 0 9
4.4111 -8.4532 -0.4836 0.4039 0 9
4.6702 -8.4824 -0.4911 0.3169 0 9
4.8656 -8.3886 -0.4918 0.4077 0 9
5.1300 -8.4062 -0.4994 0.5477 0 9
8.5532 -5.0313 -0.5032 0.2758 0 7
8.5725 -4.7883 -0.4980 0.2787 0 7
8.5907 -4.5499 -0.4930 0.2816 0 7
8.6078 -4.3157 -0.4883 0.2842 0 7
8.6238 -4.0855 -0.4839 0.2868 0 7
8.6389 -3.8589 -0.4798 0.2893 0 7
8.6529 -3.6357 -0.4760 0.2916 0 7
8.6661 -3.4157 -0.4724 0.2938 0 7
8.6783 -3.1986 -0.4691 0.2959 0 7
8.6897 -2.9842 -0.4660 0.2979 0 7
8.7002 -2.7723 -0.4631 0.2997 0 7
8.7098 -2.5626 -0.4604 0.3015 0 7
8.7187 -2.3551 -0.4580 0.3031 0 7
8.7268 -2.1495 -0.4558 0.3045 0 7
8.7341 -1.9456 -0.4538 0.3059 0 7
8.7407 -1.7432 -0.4520 0.3071 0 7
8.7465 -1.5422 -0.4504 0.3082 0 7
8.7516 -1.3424 -0.4490 0.3091 0 7
5.1470 -0.6722 -0.2632 0.1192 24 10
4.7424 -0.5120 -0.2419 0.2572 24 10
4.6959 -0.4012 -0.2390 0.5792 24 10
4.6673 -0.2940 -0.2372 0.5837 24 10
4.6426 -0.1885 -0.2356 0.5690 24 10
4.6217 -0.0844 -0.2344 0.5719 24 10
4.6096 0.0188 -0.2338 0.5914 24 10
4.6293 0.1222 -0.2349 0.5709 24 10
4.6502 0.2267 -0.2361 0.5678 24 10
4.6777 0.3329 -0.2378 0.5821 24 10
4.7063 0.4407 -0.2397 0.5775 24 10
4.8555 0.5643 -0.2479 0.2510 24 10
5.4489 0.7569 -0.2790 0.1089 24 10
8.7498 1.4152 -0.4495 0.3088 0 7
8.7445 1.6154 -0.4510 0.3078 0 7
8.7384 1.8169 -0.4526 0.3067 0 7
8.7315 2.0198 -0.4545 0.3054 0 7
8.7240 2.2243 -0.4566 0.3040 0 7
8.7156 2.4306 -0.4589 0.3025 0 7
8.7064 2.6389 -0.4614 0.3009 0 7
8.6964 2.8493 -0.4641 0.2991 0 7
8.6856 3.0621 -0.4671 0.2972 0 7
8.6739 3.2775 -0.4702 0.2952 0 7
8.6614 3.4956 -0.4737 0.2930 0 7
8.6479 3.7167 -0.4774 0.2908 0 7
8.6335 3.9411 -0.4813 0.2884 0 7
8.6181 4.1690 -0.4855 0.2859 0 7
8.5940 4.3967 -0.4896 0.2910 0 8
8.5643 4.6257 -0.4936 0.2886 0 8
8.2873 4.7180 -0.4836 0.5411 0 8
8.0707 4.8363 -0.4772 0.2747 0 8
8.0509 5.0721 -0.4826 0.2716 0 8
8.0299 5.3129 -0.4883 0.2685 0 8
8.0077 5.5591 -0.4944 0.2652 0 8
7.9841 5.8111 -0.5008 0.2618 0 8
6.6089 5.2771 -0.4289 0.6386 0 5
6.4388 5.3810 -0.4256 0.7313 0 5
5.0711 8.4639 -0.5004 0.8601 0 1
4.8186 8.4656 -0.4940 0.8712 0 1
4.5724 8.4673 -0.4880 0.8819 0 1
4.3319 8.4689 -0.4824 0.8921 0 1
4.0968 8.4705 -0.4772 0.9019 0 1
3.8666 8.4720 -0.4723 0.9113 0 1
3.6410 8.4736 -0.4677 0.9202 0 1
3.4196 8.4750 -0.4635 0.9286 0 1
3.2021 8.4765 -0.4595 0.9366 0 1
2.9881 8.4780 -0.4559 0.9441 0 1
2.7775 8.4794 -0.4525 0.9511 0 1
2.5698 8.4808 -0.4494 0.9576 0 1
2.4263 8.7027 -0.4582 0.9637 0 1
2.1687 8.5087 -0.4453 0.9693 0 1
1.9678 8.5100 -0.4430 0.9744 0 1
1.8239 8.7758 -0.4546 0.9791 0 1
1.6244 8.7972 -0.4537 0.9832 0 1
1.4223 8.7986 -0.4520 0.9869 0 1
1.2216 8.8000 -0.4506 0.9900 0 1
1.0221 8.8013 -0.4494 0.9927 0 1
0.8264 8.8326 -0.4499 0.9949 0 1
0.6244 8.7839 -0.4466 0.9966 0 1
0.4286 8.8035 -0.4470 0.9977 0 1
0.2326 8.8366 -0.4483 0.9984 0 1
0.0353 8.8379 -0.4482 0.9986 0 1
-0.1620 8.8393 -0.4484 0.9983 0 1
-0.3596 8.8406 -0.4487 0.9975 0 1
-2.3327 -8.4900 -0.6456 0.9636 0 19
-2.1304 -8.4914 -0.6419 0.9691 0 19
-1.3254 -9.8173 -0.7264 0.9894 0 19
-1.1030 -9.8188 -0.7245 0.9920 0 19
-0.8817 -9.8203 -0.7229 0.9940 0 19
-0.6612 -9.8218 -0.7218 0.9956 0 19
-0.4413 -9.8233 -0.7210 0.9967 0 19
-0.0024 -9.8263 -0.7205 0.9974 0 19
0.2170 -9.8278 -0.7208 0.9970 0 19
0.4367 -9.8293 -0.7214 0.9962 0 19
0.6569 -9.8308 -0.7224 0.9948 0 19
0.7994 -8.9535 -0.6591 0.9929 0 19
2.7975 -8.6647 -0.6676 0.3200 0 9
3.1883 -8.5494 -0.6690 0.8128 0 9
3.4148 -8.5676 -0.6762 0.5175 0 9
3.6145 -8.5113 -0.6780 0.5386 0 9
3.7884 -8.3948 -0.6753 0.4997 0 9
4.0212 -8.4050 -0.6832 0.3203 0 9
4.2199 -8.3370 -0.6851 0.3311 0 9
4.5362 -8.4862 -0.7055 0.5832 0 9
4.7341 -8.3999 -0.7070 0.3481 0 9
4.9612 -8.3607 -0.7128 0.6801 0 9
5.2549 -8.4215 -0.7278 0.7345 0 9
7.7313 -6.2272 -0.7279 0.2753 0 7
7.7660 -5.9743 -0.7184 0.2790 0 7
7.7988 -5.7270 -0.7094 0.2825 0 7
7.8299 -5.4851 -0.7010 0.2859 0 7
7.8593 -5.2481 -0.6929 0.2892 0 6
7.8870 -5.0157 -0.6853 0.2924 0 7
7.9133 -4.7877 -0.6782 0.2955 0 7
7.9381 -4.5638 -0.6714 0.2985 0 7
7.9615 -4.3438 -0.6650 0.3014 0 7
7.9835 -4.1272 -0.6590 0.3041 0 7
8.0042 -3.9141 -0.6533 0.3068 0 7
8.0237 -3.7040 -0.6480 0.3093 0 7
8.0420 -3.4968 -0.6430 0.3117 0 7
8.0591 -3.2923 -0.6383 0.3140 0 7
8.0750 -3.0904 -0.6340 0.3161 0 7
8.0899 -2.8907 -0.6299 0.3182 0 7
8.1036 -2.6932 -0.6261 0.3201 0 7
8.1164 -2.4977 -0.6227 0.3219 0 7
8.1281 -2.3040 -0.6194 0.3235 0 7
8.1388 -2.1119 -0.6165 0.3251 0 7
8.1485 -1.9213 -0.6139 0.3265 0 6
8.1573 -1.7322 -0.6115 0.3278 0 7
8.1652 -1.5442 -0.6093 0.3289 0 7
8.1721 -1.3573 -0.6074 0.3299 0 7
5.0380 -0.7216 -0.3732 0.1214 24 10
4.6453 -0.5598 -0.3431 0.4196 24 10
4.5658 -0.4471 -0.3364 0.5942 24 10
4.5354 -0.3421 -0.3335 0.5691 24 10
4.5039 -0.2388 -0.3307 0.5853 24 10
4.4845 -0.1374 -0.3290 0.6068 24 10
4.4706 -0.0372 -0.3278 0.6089 24 10
4.4741 0.0627 -0.3281 0.6084 24 10
4.4894 0.1632 -0.3294 0.5877 24 10
4.5093 0.2648 -0.3312 0.5731 24 10
4.5444 0.3688 -0.3343 0.5678 24 10
4.5727 0.4741 -0.3371 0.5929 24 10
4.7200 0.5961 -0.3488 0.2104 24 10
5.2436 0.7816 -0.3887 0.1129 24 10
8.1704 1.4049 -0.6079 0.3297 0 7
8.1633 1.5921 -0.6098 0.3286 0 7
8.1552 1.7803 -0.6120 0.3274 0 6
8.1462 1.9698 -0.6145 0.3261 0 7
8.1362 2.1608 -0.6172 0.3247 0 7
8.1252 2.3532 -0.6202 0.3231 0 7
8.1132 2.5474 -0.6235 0.3214 0 7
8.1002 2.7434 -0.6271 0.3196 0 7
8.0862 2.9415 -0.6309 0.3176 0 7
8.0710 3.1417 -0.6350 0.3156 0 7
8.0548 3.3443 -0.6395 0.3134 0 7
8.0374 3.5494 -0.6442 0.3111 0 7
8.0189 3.7573 -0.6493 0.3086 0 7
7.9991 3.9682 -0.6547 0.3061 0 7
7.9780 4.1822 -0.6605 0.3034 0 7
7.9487 4.3958 -0.6660 0.3089 0 8
7.9145 4.6105 -0.6716 0.3063 0 8
7.6992 4.7184 -0.6621 0.5706 0 8
5.2346 3.3710 -0.4565 0.1557 0 10
5.0667 3.4252 -0.4484 0.1700 0 10
4.9428 3.5047 -0.4443 0.1955 0 10
4.8777 3.6249 -0.4456 0.1605 0 10
4.8238 3.7548 -0.4482 0.1616 0 10
4.8130 3.9221 -0.4552 0.1624 0 10
4.8545 4.1396 -0.4678 0.0378 0 10
7.2207 6.4412 -0.7095 0.2668 0 8
7.1816 6.7001 -0.7202 0.2628 0 8
5.2143 8.4634 -0.7289 0.8525 0 1
4.9581 8.4651 -0.7193 0.8638 0 1
4.7084 8.4668 -0.7103 0.8747 0 1
4.4648 8.4684 -0.7019 0.8852 0 1
4.2268 8.4700 -0.6941 0.8952 0 1
3.9939 8.4716 -0.6867 0.9048 0 1
3.7658 8.4731 -0.6799 0.9140 0 1
3.5421 8.4746 -0.6735 0.9226 0 1
3.3225 8.4761 -0.6675 0.9308 0 1
3.1066 8.4775 -0.6620 0.9386 0 1
2.8941 8.4790 -0.6569 0.9459 0 1
2.6847 8.4804 -0.6522 0.9527 0 1
2.4783 8.4818 -0.6479 0.9590 0 1
2.2744 8.4831 -0.6440 0.9649 0 1
2.0791 8.5096 -0.6423 0.9703 0 1
1.8862 8.5432 -0.6415 0.1813 0 1
1.7373 8.7969 -0.6575 0.9796 0 1
1.5343 8.7982 -0.6548 0.9835 0 1
1.3329 8.7996 -0.6526 0.9869 0 1
1.1327 8.8009 -0.6506 0.9899 0 1
0.9337 8.8023 -0.6490 0.9923 0 1
0.7380 8.8335 -0.6499 0.9943 0 1
0.5379 8.8031 -0.6467 0.9957 0 1
0.3409 8.8045 -0.6460 0.9967 0 1
0.1442 8.8058 -0.6457 0.9971 0 1
-0.0526 8.8389 -0.6481 0.9971 0 1
-0.2500 8.8402 -0.6484 0.9966 0 1
-0.4477 8.8416 -0.6491 0.9955 0 1
-0.6436 8.8112 -0.6478 0.9940 0 1
-0.8419 8.8125 -0.6491 0.9920 0 1
-1.0448 8.8456 -0.6531 0.9895 0 1
-1.2458 8.8470 -0.6551 0.9865 0 1
-1.4481 8.8484 -0.6574 0.9830 0 1
-1.6520 8.8498 -0.6601 0.9790 0 1
-1.8576 8.8512 -0.6631 0.9745 0 1
-2.0652 8.8526 -0.6665 0.9695 0 1
-2.2751 8.8540 -0.6703 0.9641 0 1
-2.4875 8.8555 -0.6744 0.9582 0 1
-2.7026 8.8569 -0.6790 0.9518 0 1
-2.8167 8.5429 -0.6596 0.9449 0 1
-3.0303 8.5444 -0.6647 0.9375 0 1
-3.2474 8.5458 -0.6703 0.9297 0 1
-3.5963 8.8630 -0.7013 0.9214 0 1
-3.8296 8.8646 -0.7080 0.9127 0 1
-4.0675 8.8663 -0.7152 0.9035 0 1
-4.3104 8.8679 -0.7230 0.8939 0 1
-4.5330 8.8195 -0.7271 0.8837 0 1
-4.9979 5.4444 -0.5419 0.7676 0 9
-5.0780 5.2896 -0.5376 0.9944 0 9
-5.2394 5.2194 -0.5423 0.6933 0 9
-2.7469 -8.2137 -0.6350 0.6795 0 19
-2.4158 -8.4621 -0.6453 0.9610 0 19
-2.2202 -8.4907 -0.6435 0.9667 0 19
-2.0127 -8.4649 -0.6380 0.9719 0 19
-1.4216 -9.7943 -0.7257 0.9881 0 19
-1.2019 -9.8181 -0.7253 0.9909 0 19
-0.9802 -9.8197 -0.7236 0.9932 0 19
-0.7593 -9.8212 -0.7223 0.9950 0 19
-0.5392 -9.8227 -0.7213 0.9963 0 19
-0.3188 -9.8018 -0.7191 0.9971 0 19
-0.1001 -9.8256 -0.7205 0.9975 0 19
0.1193 -9.8271 -0.7206 0.9973 0 19
0.3389 -9.8286 -0.7211 0.9966 0 19
0.5588 -9.8301 -0.7219 0.9954 0 19
0.7755 -9.7819 -0.7195 0.9938 0 19
3.1246 -8.6401 -0.6737 0.8072 0 9
3.3385 -8.6246 -0.6781 0.9145 0 9
3.5593 -8.6183 -0.6837 0.5119 0 9
3.7351 -8.5009 -0.6808 0.6284 0 9
3.9145 -8.3953 -0.6792 0.8308 0 9
4.1822 -8.4704 -0.6926 0.2864 0 9
4.3508 -8.3376 -0.6896 0.2861 0 9
4.6111 -8.3751 -0.7010 0.7218 0 9
4.9180 -8.4789 -0.7187 0.8965 0 9
5.1599 -8.4552 -0.7263 0.5429 0 9
5.3381 -8.3235 -0.7250 0.7857 0 9
7.7508 -6.0861 -0.7226 0.2773 0 7
7.7844 -5.8364 -0.7134 0.2809 0 7
7.8163 -5.5921 -0.7047 0.2844 0 7
7.8464 -5.3530 -0.6964 0.2878 0 7
7.8749 -5.1186 -0.6887 0.2910 0 7
7.9018 -4.8887 -0.6813 0.2942 0 7
7.9272 -4.6631 -0.6743 0.2972 0 7
7.9512 -4.4413 -0.6678 0.3001 0 7
7.9739 -4.2232 -0.6616 0.3029 0 7
7.9952 -4.0086 -0.6558 0.3056 0 7
8.0152 -3.7971 -0.6503 0.3082 0 7
8.0340 -3.5887 -0.6452 0.3106 0 7
8.0516 -3.3830 -0.6404 0.3130 0 7
8.0680 -3.1800 -0.6359 0.3152 0 7
8.0834 -2.9793 -0.6317 0.3173 0 7
8.0976 -2.7809 -0.6278 0.3192 0 7
8.1108 -2.5845 -0.6242 0.3211 0 7
8.1230 -2.3900 -0.6208 0.3228 0 7
8.1341 -2.1972 -0.6178 0.3244 0 7
8.1443 -2.0060 -0.6150 0.3259 0 7
8.1535 -1.8162 -0.6125 0.3272 0 6
8.1618 -1.6277 -0.6102 0.3284 0 6
8.1692 -1.4404 -0.6082 0.3295 0 7
5.4217 -0.8316 -0.4022 0.0778 24 10
4.7901 -0.6256 -0.3542 0.2072 24 10
4.5778 -0.4943 -0.3376 0.5920 24 10
4.5510 -0.3888 -0.3349 0.5968 24 10
4.5159 -0.2844 -0.3318 0.5721 24 10
4.4931 -0.1824 -0.3297 0.5871 24 10
4.4768 -0.0817 -0.3283 0.6080 24 10
4.4680 0.0182 -0.3276 0.6093 24 10
4.4818 0.1183 -0.3287 0.6072 24 10
4.5002 0.2194 -0.3304 0.5859 24 10
4.5287 0.3223 -0.3329 0.5701 24 10
4.5607 0.4271 -0.3359 0.5951 24 10
4.6177 0.5367 -0.3409 0.4223 24 10
4.9098 0.6820 -0.3635 0.2471 24 10
8.1734 1.3219 -0.6071 0.3301 0 7
8.1666 1.5086 -0.6089 0.3291 0 7
8.1589 1.6964 -0.6110 0.3280 0 6
8.1503 1.8853 -0.6134 0.3267 0 7
8.1407 2.0756 -0.6160 0.3253 0 7
8.1302 2.2673 -0.6189 0.3238 0 7
8.1187 2.4607 -0.6220 0.3222 0 7
8.1061 2.6559 -0.6254 0.3204 0 7
8.0926 2.8530 -0.6292 0.3185 0 7
8.0779 3.0522 -0.6332 0.3165 0 7
8.0622 3.2538 -0.6375 0.3144 0 7
8.0453 3.4578 -0.6421 0.3121 0 7
8.0273 3.6644 -0.6470 0.3097 0 7
8.0080 3.8739 -0.6523 0.3072 0 7
7.9875 4.0865 -0.6579 0.3046 0 7
7.9635 4.3012 -0.6636 0.3100 0 8
7.9299 4.5145 -0.6691 0.3075 0 8
7.8567 4.7081 -0.6716 0.5625 0 8
7.5090 4.7307 -0.6507 0.5806 0 8
5.1435 3.4031 -0.4522 0.1285 0 10
4.9883 3.4630 -0.4453 0.1405 0 10
4.9031 3.5687 -0.4446 0.1953 0 10
4.8583 3.7047 -0.4480 0.1603 0 10
4.8254 3.8530 -0.4528 0.1633 0 10
4.8153 4.0242 -0.4601 0.1293 0 10
4.9791 4.3535 -0.4849 0.0509 0 10
7.1993 6.5840 -0.7153 0.2646 0 8
7.1590 6.8468 -0.7263 0.2606 0 8
5.0713 8.4643 -0.7235 0.8588 0 1
4.8188 8.4660 -0.7143 0.8699 0 1
4.5726 8.4677 -0.7056 0.8806 0 1
4.3321 8.4693 -0.6975 0.8908 0 1
4.0970 8.4709 -0.6899 0.9006 0 1
3.8668 8.4724 -0.6829 0.9099 0 1
3.6412 8.4739 -0.6763 0.9188 0 1
3.4198 8.4754 -0.6701 0.9272 0 1
3.2022 8.4769 -0.6644 0.9352 0 1
2.9883 8.4783 -0.6591 0.9427 0 1
2.7776 8.4798 -0.6543 0.9497 0 1
2.5699 8.4812 -0.6498 0.9563 0 1
2.3649 8.4825 -0.6457 0.9623 0 1
2.1624 8.4839 -0.6419 0.9679 0 1
1.9679 8.5104 -0.6405 0.9730 0 1
1.8344 8.8261 -0.6610 0.9777 0 1
1.6245 8.7976 -0.6560 0.9818 0 1
1.4224 8.7990 -0.6535 0.9855 0 1
1.2217 8.8003 -0.6514 0.9886 0 1
1.0222 8.8017 -0.6497 0.9913 0 1
0.8236 8.8030 -0.6483 0.9935 0 1
0.6244 8.7843 -0.6457 0.9951 0 1
0.4286 8.8039 -0.6463 0.9963 0 1
0.2318 8.8052 -0.6458 0.9970 0 1
0.0353 8.8383 -0.6480 0.9972 0 1
-0.1621 8.8396 -0.6483 0.9969 0 1
-0.3596 8.8410 -0.6488 0.9961 0 1
-2.5118 -8.4029 -0.8420 0.2935 0 19
-2.4731 -9.0009 -0.8962 0.2728 0 19
-1.3297 -9.8488 -0.9541 0.1467 0 19
-1.1030 -9.8184 -0.9485 0.9901 0 19
-0.8817 -9.8199 -0.9466 0.9922 0 19
-0.6612 -9.8214 -0.9450 0.9938 0 19
-0.4413 -9.8229 -0.9440 0.9949 0 19
-0.2213 -9.8020 -0.9413 0.9955 0 19
-0.0024 -9.8259 -0.9433 0.9956 0 19
0.2170 -9.8274 -0.9437 0.9952 0 19
0.4367 -9.8289 -0.9445 0.9943 0 19
0.6569 -9.8304 -0.9459 0.9929 0 19
0.8651 -9.6895 -0.9339 0.9910 0 19
2.2166 -8.8533 -0.8762 0.8136 0 9
2.3925 -8.7243 -0.8685 0.9425 0 9
2.5505 -8.5477 -0.8564 0.8590 0 9
2.7682 -8.5738 -0.8650 0.9907 0 9
3.0038 -8.6390 -0.8781 0.5767 0 9
3.1413 -8.4235 -0.8631 0.4585 0 9
3.3323 -8.3606 -0.8641 0.3407 0 9
3.5495 -8.3582 -0.8718 0.3790 0 9
3.7451 -8.2988 -0.8741 0.5045 0 9
3.9839 -8.3269 -0.8862 0.7648 0 9
4.2302 -8.3573 -0.8993 0.4966 0 9
4.4964 -8.4118 -0.9157 0.5719 0 9
4.7987 -8.5145 -0.9383 0.2437 0 9
4.9805 -8.3932 -0.9370 0.6762 0 9
5.2352 -8.3900 -0.9494 0.4464 0 9
6.9348 -6.9944 -0.9456 0.2770 0 7
6.9854 -6.7378 -0.9318 0.2811 0 7
7.0335 -6.4874 -0.9186 0.2851 0 7
7.0791 -6.2428 -0.9062 0.2890 0 7
7.1224 -6.0038 -0.8943 0.2929 0 7
7.1636 -5.7699 -0.8831 0.2966 0 7
7.2026 -5.5408 -0.8724 0.3002 0 7
7.2396 -5.3163 -0.8623 0.3037 0 7
7.2746 -5.0961 -0.8527 0.3071 0 7
7.3079 -4.8799 -0.8436 0.3104 0 7
7.3394 -4.6674 -0.8350 0.3136 0 7
7.3691 -4.4585 -0.8269 0.3167 0 7
7.3973 -4.2529 -0.8192 0.3197 0 7
7.4239 -4.0505 -0.8119 0.3226 0 7
7.4490 -3.8509 -0.8051 0.3253 0 7
7.4727 -3.6541 -0.7986 0.3280 0 7
7.4949 -3.4599 -0.7925 0.3305 0 7
7.5158 -3.2680 -0.7868 0.3329 0 7
7.5353 -3.0783 -0.7815 0.3351 0 7
7.5536 -2.8908 -0.7765 0.3373 0 7
7.5706 -2.7052 -0.7718 0.3393 0 7
7.5864 -2.5213 -0.7675 0.3412 0 7
7.6010 -2.3391 -0.7635 0.3430 0 7
7.6145 -2.1584 -0.7598 0.3447 0 7
7.6268 -1.9790 -0.7565 0.3462 0 7
7.6380 -1.8010 -0.7534 0.3476 0 7
7.6481 -1.6240 -0.7506 0.3489 0 6
7.6572 -1.4481 -0.7482 0.3501 0 7
7.6652 -1.2731 -0.7460 0.3511 0 7
4.6681 -0.6686 -0.4527 0.2119 24 10
4.4838 -0.5404 -0.4336 0.4339 24 10
4.4242 -0.4332 -0.4268 0.5812 24 10
4.3913 -0.3312 -0.4228 0.5867 24 10
4.3626 -0.2313 -0.4194 0.6220 24 10
4.3498 -0.1333 -0.4178 0.6244 24 10
4.3368 -0.0361 -0.4164 0.6265 24 10
4.3401 0.0608 -0.4167 0.6260 24 10
4.3531 0.1582 -0.4182 0.6238 24 10
4.3671 0.2565 -0.4200 0.6023 24 10
4.3996 0.3571 -0.4238 0.5853 24 10
4.4326 0.4596 -0.4278 0.5798 24 10
4.5188 0.5707 -0.4373 0.4302 24 10
4.7603 0.7095 -0.4621 0.2105 24 10
7.6632 1.3177 -0.7465 0.3508 0 7
7.6550 1.4929 -0.7488 0.3498 0 7
7.6457 1.6691 -0.7513 0.3486 0 7
7.6353 1.8463 -0.7541 0.3473 0 7
7.6238 2.0247 -0.7573 0.3458 0 7
7.6112 2.2044 -0.7607 0.3443 0 7
7.5974 2.3854 -0.7645 0.3426 0 7
7.5825 2.5681 -0.7686 0.3408 0 7
7.5664 2.7524 -0.7730 0.3388 0 7
7.5490 2.9385 -0.7777 0.3368 0 7
7.5305 3.1266 -0.7828 0.3346 0 7
7.5106 3.3168 -0.7882 0.3323 0 7
7.4894 3.5092 -0.7940 0.3298 0 7
7.4668 3.7041 -0.8002 0.3273 0 7
7.4428 3.9016 -0.8068 0.3246 0 7
7.4173 4.1019 -0.8137 0.3219 0 7
5.0524 2.9432 -0.5614 0.2418 0 10
4.8836 2.9928 -0.5499 0.4314 0 10
4.6948 3.0233 -0.5361 0.4314 0 10
4.6095 3.1161 -0.5342 0.3163 0 10
4.5330 3.2141 -0.5335 0.3203 0 10
4.4579 3.3129 -0.5332 0.2961 0 10
4.4204 3.4408 -0.5378 0.3433 0 10
4.3905 3.5777 -0.5437 0.3490 0 10
4.3687 3.7253 -0.5512 0.3443 0 10
3.7952 3.3856 -0.4883 0.0218 0 10
3.6017 3.3602 -0.4729 0.0946 0 10
3.4450 3.3610 -0.4621 0.1705 0 10
3.3091 3.3759 -0.4538 0.1754 0 10
3.2431 3.4597 -0.4553 0.2676 0 10
3.1735 3.5407 -0.4565 0.1863 0 10
3.1297 3.6526 -0.4618 0.1842 0 10
3.0921 3.7762 -0.4686 0.2219 0 10
3.0576 3.9089 -0.4764 0.2182 0 10
3.0434 4.0750 -0.4883 0.1291 0 10
3.0807 4.3231 -0.5096 0.1071 0 10
5.2145 8.4638 -0.9544 0.8508 0 1
4.9583 8.4655 -0.9419 0.8622 0 1
4.7087 8.4671 -0.9301 0.8730 0 1
4.4650 8.4688 -0.9191 0.8835 0 1
4.2270 8.4704 -0.9088 0.8935 0 1
3.9941 8.4720 -0.8992 0.9031 0 1
3.7660 8.4735 -0.8902 0.9122 0 1
3.5423 8.4750 -0.8819 0.9208 0 1
3.3226 8.4765 -0.8741 0.9290 0 1
3.1067 8.4779 -0.8668 0.9368 0 1
2.8942 8.4793 -0.8602 0.9440 0 1
2.6849 8.4808 -0.8540 0.9508 0 1
2.4784 8.4821 -0.8484 0.9572 0 1
2.2745 8.4835 -0.8432 0.9630 0 1
2.0792 8.5100 -0.8410 0.9684 0 1
1.9376 8.7758 -0.8628 0.9733 0 1
1.7373 8.7972 -0.8609 0.9777 0 1
1.5344 8.7986 -0.8575 0.9816 0 1
1.3329 8.8000 -0.8545 0.9850 0 1
1.1328 8.8013 -0.8519 0.9879 0 1
0.9337 8.8027 -0.8498 0.9904 0 1
0.7339 8.7839 -0.8462 0.9923 0 1
0.5379 8.8035 -0.8468 0.9938 0 1
0.3410 8.8049 -0.8459 0.9947 0 1
0.1443 8.8062 -0.8456 0.9952 0 1
-0.0524 8.8075 -0.8456 0.9952 0 1
-0.2491 8.8089 -0.8460 0.9946 0 1
-0.4461 8.8102 -0.8469 0.9936 0 1
-0.6437 8.8115 -0.8482 0.9921 0 1
-0.8419 8.8129 -0.8499 0.9901 0 1
-1.0448 8.8460 -0.8552 0.9876 0 1
-1.2458 8.8474 -0.8578 0.9846 0 1
-1.4482 8.8488 -0.8608 0.9811 0 1
-1.6520 8.8502 -0.8643 0.9771 0 1
-1.8577 8.8516 -0.8683 0.9726 0 1
-2.0653 8.8530 -0.8728 0.9677 0 1
-2.2752 8.8544 -0.8777 0.9622 0 1
-2.4876 8.8559 -0.8831 0.9563 0 1
-2.6874 8.8072 -0.8840 0.9499 0 1
-2.8169 8.5433 -0.8636 0.9430 0 1
-3.0304 8.5448 -0.8704 0.9357 0 1
-3.3675 8.8619 -0.9101 0.9279 0 1
-3.5965 8.8635 -0.9183 0.9196 0 1
-3.8298 8.8651 -0.9271 0.9109 0 1
-4.0447 8.8165 -0.9312 0.9017 0 1
-4.2862 8.8182 -0.9413 0.8921 0 1
-4.9660 5.4097 -0.7050 0.7711 0 9
-5.0576 5.2684 -0.7011 0.9965 0 9
-5.2292 5.2093 -0.7086 0.6933 0 9
-2.5794 -8.3264 -0.8369 0.9530 0 19
-2.5052 -8.7754 -0.8761 0.2820 0 19
-1.4215 -9.7939 -0.9501 0.9862 0 19
-1.2019 -9.8177 -0.9496 0.9890 0 19
-0.9801 -9.8192 -0.9474 0.9913 0 19
-0.7593 -9.8207 -0.9457 0.9931 0 19
-0.5392 -9.8222 -0.9444 0.9944 0 19
-0.1001 -9.8252 -0.9433 0.9956 0 19
0.1193 -9.8267 -0.9435 0.9954 0 19
0.3388 -9.8282 -0.9441 0.9948 0 19
0.5588 -9.8297 -0.9452 0.9936 0 19
0.7794 -9.8312 -0.9468 0.9919 0 19
0.9114 -8.9538 -0.8641 0.9898 0 19
2.1250 -8.8603 -0.8747 0.6676 0 9
2.3025 -8.7359 -0.8673 0.2478 0 9
2.4605 -8.5556 -0.8547 0.8626 0 9
2.7008 -8.6585 -0.8708 0.9224 0 9
2.8752 -8.5421 -0.8653 0.4249 0 9
3.1156 -8.6151 -0.8795 0.6423 0 9
3.2754 -8.4614 -0.8711 0.8158 0 9
3.4373 -8.3229 -0.8645 0.3377 0 9
3.6385 -8.2810 -0.8684 0.2070 0 9
3.9268 -8.4216 -0.8921 0.7598 0 9
4.1537 -8.4126 -0.9007 0.2878 0 9
4.3850 -8.4032 -0.9100 0.7993 0 9
4.6539 -8.4528 -0.9264 0.7208 0 9
4.9009 -8.4494 -0.9378 0.6948 0 9
5.1035 -8.3628 -0.9406 0.4683 0 9
5.3707 -8.3743 -0.9551 0.7766 0 9
6.9114 -7.1108 -0.9520 0.2751 0 7
6.9632 -6.8512 -0.9378 0.2793 0 7
7.0124 -6.5981 -0.9244 0.2833 0 7
7.0591 -6.3510 -0.9116 0.2873 0 7
7.1034 -6.1096 -0.8995 0.2912 0 7
7.1455 -5.8734 -0.8880 0.2949 0 7
7.1855 -5.6422 -0.8771 0.2986 0 7
7.2233 -5.4157 -0.8667 0.3022 0 7
7.2593 -5.1936 -0.8569 0.3056 0 6
7.2933 -4.9756 -0.8476 0.3090 0 7
7.3256 -4.7616 -0.8388 0.3122 0 7
7.3561 -4.5511 -0.8305 0.3154 0 7
7.3850 -4.3441 -0.8226 0.3184 0 7
7.4123 -4.1402 -0.8151 0.3213 0 7
7.4380 -3.9394 -0.8081 0.3241 0 7
7.4623 -3.7414 -0.8014 0.3268 0 7
7.4852 -3.5460 -0.7952 0.3294 0 7
7.5066 -3.3531 -0.7893 0.3318 0 7
7.5268 -3.1625 -0.7838 0.3341 0 7
7.5456 -2.9741 -0.7787 0.3364 0 7
7.5632 -2.7876 -0.7739 0.3384 0 7
7.5795 -2.6029 -0.7694 0.3404 0 7
7.5947 -2.4200 -0.7652 0.3422 0 7
7.6086 -2.2386 -0.7614 0.3440 0 7
7.6215 -2.0587 -0.7579 0.3456 0 7
7.6332 -1.8801 -0.7547 0.3470 0 6
7.6438 -1.7027 -0.7518 0.3484 0 7
7.6533 -1.5263 -0.7492 0.3496 0 7
7.6617 -1.3509 -0.7469 0.3506 0 7
4.8300 -0.7408 -0.4691 0.2074 24 10
4.5452 -0.5936 -0.4401 0.4275 24 10
4.4389 -0.4793 -0.4286 0.5787 24 10
4.4059 -0.3764 -0.4245 0.5843 24 10
4.3732 -0.2754 -0.4207 0.5896 24 10
4.3555 -0.1768 -0.4185 0.6233 24 10
4.3426 -0.0793 -0.4170 0.6256 24 10
4.3343 0.0176 -0.4161 0.6269 24 10
4.3473 0.1148 -0.4175 0.6248 24 10
4.3601 0.2126 -0.4191 0.6225 24 10
4.3851 0.3121 -0.4221 0.5877 24 10
4.4179 0.4137 -0.4260 0.5823 24 10
4.4581 0.5181 -0.4309 0.4366 24 10
4.6015 0.6392 -0.4460 0.2151 24 10
5.1380 0.8310 -0.4997 0.1148 24 10
7.6588 1.4148 -0.7477 0.3503 0 7
7.6499 1.5906 -0.7501 0.3491 0 7
7.6400 1.7673 -0.7528 0.3479 0 6
7.6290 1.9451 -0.7559 0.3465 0 7
7.6169 2.1242 -0.7592 0.3450 0 7
7.6037 2.3046 -0.7628 0.3434 0 7
7.5893 2.4866 -0.7667 0.3416 0 7
7.5737 2.6701 -0.7710 0.3397 0 7
7.5569 2.8554 -0.7756 0.3377 0 7
7.5389 3.0426 -0.7805 0.3356 0 7
7.5196 3.2318 -0.7858 0.3333 0 7
7.4990 3.4232 -0.7914 0.3309 0 7
7.4770 3.6170 -0.7974 0.3284 0 7
7.4536 3.8134 -0.8038 0.3258 0 7
7.4288 4.0124 -0.8106 0.3231 0 7
5.4097 3.0797 -0.5976 0.2552 0 10
4.9597 2.9721 -0.5551 0.4301 0 10
4.7787 3.0106 -0.5422 0.4902 0 10
4.6439 3.0726 -0.5346 0.3161 0 10
4.5665 3.1702 -0.5337 0.3204 0 10
4.4923 3.2697 -0.5334 0.3196 0 10
4.4297 3.3779 -0.5348 0.2956 0 10
4.4006 3.5138 -0.5406 0.3415 0 10
4.3785 3.6592 -0.5478 0.3464 0 10
4.2953 3.7556 -0.5478 0.0499 0 10
3.6855 3.3705 -0.4795 0.0951 0 10
3.4967 3.3442 -0.4645 0.1711 0 10
3.3594 3.3596 -0.4561 0.1687 0 10
3.2735 3.4233 -0.4547 0.2698 0 10
3.2040 3.5039 -0.4558 0.2673 0 10
3.1494 3.6026 -0.4594 0.1852 0 10
3.1080 3.7196 -0.4654 0.2300 0 10
3.0731 3.8494 -0.4729 0.2198 0 10
3.0375 3.9840 -0.4810 0.2162 0 10
3.0595 4.2043 -0.4992 0.1258 0 10
5.0715 8.4647 -0.9474 0.8572 0 1
4.8190 8.4664 -0.9353 0.8682 0 1
4.5728 8.4681 -0.9239 0.8789 0 1
4.3323 8.4697 -0.9133 0.8891 0 1
4.0972 8.4713 -0.9034 0.8989 0 1
3.8670 8.4728 -0.8941 0.9082 0 1
3.6414 8.4743 -0.8855 0.9170 0 1
3.4199 8.4758 -0.8775 0.9254 0 1
3.2024 8.4773 -0.8700 0.9334 0 1
2.9884 8.4787 -0.8631 0.9409 0 1
2.7777 8.4801 -0.8567 0.9479 0 1
2.5700 8.4815 -0.8508 0.9544 0 1
2.3650 8.4829 -0.8455 0.9605 0 1
2.1689 8.5094 -0.8431 0.9661 0 1
1.9680 8.5108 -0.8386 0.9712 0 1
1.8282 8.7966 -0.8626 0.9758 0 1
1.6245 8.7980 -0.8589 0.9799 0 1
1.4224 8.7994 -0.8557 0.9835 0 1
1.2217 8.8007 -0.8530 0.9867 0 1
1.0222 8.8021 -0.8507 0.9894 0 1
0.8237 8.8034 -0.8489 0.9915 0 1
0.6280 8.8347 -0.8503 0.9932 0 1
0.4286 8.8043 -0.8463 0.9944 0 1
