ply
format ascii 1.0
element vertex 1410
property float32 x
property float32 y
property float32 z
property float32 CosAngle
property uint32 ObjIdx
property uint32 ObjTag
end_header
1.0761 5.0476 -2.3890 0.4551 0 8
0.9742 5.1295 -2.4168 0.4498 0 8
0.8694 5.2110 -2.4455 0.4446 0 8
0.7617 5.2921 -2.4749 0.4393 0 8
0.6511 5.3727 -2.5051 0.4340 0 8
0.5374 5.4527 -2.5362 0.4287 0 8
0.4206 5.5321 -2.5681 0.4233 0 8
0.3006 5.6109 -2.6009 0.4180 0 8
0.1773 5.6890 -2.6346 0.4127 0 8
0.0507 5.7662 -2.6692 0.4073 0 8
-0.0792 5.8427 -2.7047 0.4020 0 8
-0.2127 5.9182 -2.7412 0.3966 0 8
-0.3497 5.9927 -2.7787 0.3913 0 8
-0.4903 6.0662 -2.8171 0.3859 0 8
-0.6345 6.1384 -2.8565 0.3806 0 8
-0.7825 6.2094 -2.8970 0.3753 0 8
-0.9344 6.2790 -2.9385 0.3700 0 8
-1.0901 6.3472 -2.9810 0.3647 0 8
-1.2497 6.4138 -3.0247 0.3594 0 8
-1.4134 6.4787 -3.0694 0.3542 0 8
-1.5812 6.5417 -3.1153 0.3490 0 8
-1.7531 6.6029 -3.1623 0.3438 0 8
-1.9292 6.6619 -3.2104 0.3386 0 8
-2.1096 6.7187 -3.2597 0.3335 0 8
0.0140 -5.7841 -2.8373 0.4254 0 7
0.1415 -5.7113 -2.8024 0.4307 0 7
0.2659 -5.6375 -2.7684 0.4360 0 7
0.3872 -5.5627 -2.7352 0.4412 0 7
0.5055 -5.4871 -2.7029 0.4465 0 7
0.6207 -5.4106 -2.6714 0.4518 0 7
0.7330 -5.3334 -2.6407 0.4570 0 7
0.8424 -5.2554 -2.6108 0.4623 0 6
0.9490 -5.1769 -2.5817 0.4675 0 6
1.0528 -5.0977 -2.5533 0.4727 0 7
1.1539 -5.0180 -2.5257 0.4779 0 7
1.2523 -4.9378 -2.4988 0.4830 0 7
1.3481 -4.8571 -2.4726 0.4881 0 7
1.4414 -4.7760 -2.4471 0.4932 0 7
1.5321 -4.6945 -2.4223 0.4983 0 7
1.6204 -4.6127 -2.3982 0.5033 0 7
1.7062 -4.5305 -2.3747 0.5082 0 7
1.7897 -4.4481 -2.3519 0.5132 0 7
1.8709 -4.3654 -2.3297 0.5181 0 7
1.9498 -4.2825 -2.3081 0.5229 0 7
2.0265 -4.1993 -2.2872 0.5277 0 7
2.1010 -4.1160 -2.2668 0.5324 0 7
2.1734 -4.0325 -2.2470 0.5371 0 7
2.2437 -3.9488 -2.2278 0.5417 0 7
2.3119 -3.8651 -2.2092 0.5463 0 7
2.3781 -3.7812 -2.1911 0.5508 0 7
2.4423 -3.6972 -2.1735 0.5553 0 7
2.5046 -3.6131 -2.1565 0.5597 0 7
2.5650 -3.5290 -2.1400 0.5640 0 7
2.6235 -3.4449 -2.1240 0.5682 0 7
2.6801 -3.3607 -2.1085 0.5724 0 7
2.7350 -3.2764 -2.0935 0.5765 0 7
2.7881 -3.1922 -2.0790 0.5805 0 7
2.8395 -3.1079 -2.0650 0.5845 0 7
2.8891 -3.0236 -2.0514 0.5883 0 7
2.9371 -2.9394 -2.0383 0.5921 0 7
2.9835 -2.8551 -2.0256 0.5958 0 7
3.0282 -2.7709 -2.0134 0.5994 0 7
3.0713 -2.6867 -2.0016 0.6030 0 7
3.1128 -2.6025 -1.9903 0.6064 0 7
3.1528 -2.5183 -1.9793 0.6098 0 7
3.1913 -2.4342 -1.9688 0.6130 0 7
3.2283 -2.3501 -1.9587 0.6162 0 7
3.2638 -2.2661 -1.9490 0.6193 0 7
3.2978 -2.1821 -1.9397 0.6222 0 7
3.3304 -2.0981 -1.9308 0.6251 0 7
3.3616 -2.0142 -1.9223 0.6279 0 7
3.3913 -1.9303 -1.9141 0.6305 0 7
3.4197 -1.8465 -1.9064 0.6331 0 6
3.4468 -1.7627 -1.8990 0.6356 0 7
3.4724 -1.6790 -1.8920 0.6379 0 7
3.4967 -1.5953 -1.8853 0.6402 0 6
3.5198 -1.5117 -1.8790 0.6423 0 7
3.5415 -1.4281 -1.8731 0.6443 0 7
3.5619 -1.3445 -1.8675 0.6463 0 7
3.5810 -1.2610 -1.8623 0.6481 0 7
3.5988 -1.1775 -1.8574 0.6498 0 7
3.6154 -1.0941 -1.8529 0.6514 0 7
3.6308 -1.0107 -1.8487 0.6529 0 7
3.6448 -0.9273 -1.8448 0.6542 0 7
3.6577 -0.8440 -1.8413 0.6555 0 7
3.6693 -0.7607 -1.8382 0.6566 0 7
3.6797 -0.6774 -1.8353 0.6576 0 7
3.6889 -0.5942 -1.8328 0.6585 0 7
3.6968 -0.5109 -1.8306 0.6593 0 7
3.7036 -0.4277 -1.8288 0.6600 0 7
3.7092 -0.3445 -1.8273 0.6605 0 7
3.7135 -0.2613 -1.8261 0.6609 0 7
3.7167 -0.1781 -1.8252 0.6613 0 7
3.7186 -0.0950 -1.8247 0.6614 0 7
3.7194 -0.0118 -1.8245 0.6615 0 7
3.7190 0.0713 -1.8246 0.6615 0 7
3.7173 0.1545 -1.8250 0.6613 0 7
3.7145 0.2377 -1.8258 0.6610 0 7
3.7105 0.3209 -1.8269 0.6606 0 7
3.7053 0.4041 -1.8283 0.6601 0 7
3.6989 0.4873 -1.8301 0.6595 0 7
3.6913 0.5705 -1.8322 0.6587 0 7
3.6824 0.6538 -1.8346 0.6579 0 7
3.6724 0.7370 -1.8373 0.6569 0 7
3.6611 0.8203 -1.8404 0.6558 0 7
3.6486 0.9037 -1.8438 0.6546 0 7
3.6349 0.9870 -1.8476 0.6533 0 7
3.6199 1.0704 -1.8517 0.6518 0 7
3.6037 1.1538 -1.8561 0.6502 0 7
3.5862 1.2373 -1.8609 0.6486 0 7
3.5674 1.3208 -1.8660 0.6468 0 7
3.5474 1.4043 -1.8715 0.6449 0 7
3.5261 1.4879 -1.8773 0.6429 0 7
3.5034 1.5715 -1.8835 0.6408 0 7
3.4795 1.6552 -1.8900 0.6386 0 7
3.4542 1.7389 -1.8970 0.6362 0 6
3.4275 1.8227 -1.9042 0.6338 0 6
3.3996 1.9065 -1.9119 0.6313 0 7
3.3702 1.9904 -1.9199 0.6286 0 7
3.3394 2.0743 -1.9283 0.6259 0 7
3.3072 2.1582 -1.9371 0.6230 0 7
3.2736 2.2422 -1.9463 0.6201 0 7
3.2385 2.3262 -1.9559 0.6171 0 7
3.2020 2.4103 -1.9659 0.6139 0 7
3.1639 2.4944 -1.9763 0.6107 0 7
3.1244 2.5785 -1.9871 0.6074 0 7
3.0833 2.6627 -1.9983 0.6040 0 7
3.0406 2.7469 -2.0100 0.6005 0 7
2.9963 2.8312 -2.0221 0.5969 0 7
2.9505 2.9154 -2.0346 0.5932 0 7
2.9030 2.9997 -2.0476 0.5894 0 7
2.8538 3.0840 -2.0611 0.5856 0 7
2.5290 2.8586 -1.8722 0.6710 0 10
2.4499 2.8972 -1.8611 0.4352 0 10
2.3286 2.8821 -1.8175 0.7013 0 10
2.2178 2.8741 -1.7807 0.7137 0 10
2.1174 2.8747 -1.7513 0.7256 0 10
2.0203 2.8753 -1.7237 0.7373 0 10
1.9261 2.8759 -1.6979 0.7485 0 10
1.8421 2.8880 -1.6803 0.9976 0 10
1.7369 2.8623 -1.6423 0.7699 0 10
1.6580 2.8754 -1.6282 0.9647 0 10
1.5888 2.9035 -1.6235 0.9537 0 10
1.5168 2.9254 -1.6164 0.9367 0 10
1.4438 2.9438 -1.6083 0.9361 0 10
1.3696 2.9582 -1.5990 0.8998 0 10
1.2964 2.9727 -1.5908 0.9448 0 10
1.2249 2.9892 -1.5846 0.8532 0 10
1.1634 3.0306 -1.5924 0.5404 0 10
1.1225 3.1316 -1.6318 0.6774 0 10
1.0794 3.2376 -1.6741 0.5070 0 10
1.0382 3.3627 -1.7263 0.4864 0 10
0.9892 3.4779 -1.7737 0.5345 0 10
0.9512 3.6531 -1.8517 0.1759 0 10
1.1282 4.7673 -2.4031 0.9468 0 8
1.0216 4.7929 -2.4038 0.4742 0 8
0.9243 4.8678 -2.4304 0.4690 0 8
0.8244 4.9422 -2.4577 0.4638 0 8
0.7219 5.0159 -2.4858 0.4585 0 8
0.6166 5.0890 -2.5146 0.4533 0 8
0.5086 5.1615 -2.5441 0.4480 0 8
0.3977 5.2331 -2.5744 0.4427 0 8
0.2840 5.3040 -2.6055 0.4375 0 8
0.1674 5.3740 -2.6373 0.4322 0 8
0.0478 5.4430 -2.6700 0.4269 0 8
-0.0749 5.5111 -2.7036 0.4216 0 8
-0.2006 5.5780 -2.7379 0.4163 0 8
-0.3294 5.6438 -2.7731 0.4110 0 8
-0.4615 5.7084 -2.8092 0.4057 0 8
-0.5967 5.7716 -2.8462 0.4005 0 8
-0.7353 5.8334 -2.8841 0.3952 0 8
-0.8772 5.8937 -2.9228 0.3900 0 8
-1.0224 5.9524 -2.9625 0.3847 0 8
-1.1711 6.0094 -3.0032 0.3795 0 8
-1.3232 6.0645 -3.0448 0.3743 0 8
-1.4789 6.1177 -3.0873 0.3692 0 8
-1.6380 6.1688 -3.1308 0.3641 0 8
-1.8008 6.2178 -3.1753 0.3590 0 8
-1.9671 6.2644 -3.2208 0.3539 0 8
-2.1371 6.3085 -3.2672 0.3489 0 8
-2.3106 6.3500 -3.3147 0.3439 0 8
-2.4879 6.3888 -3.3631 0.3389 0 8
-2.6688 6.4247 -3.4125 0.3340 0 8
-2.8533 6.4575 -3.4630 0.3291 0 8
-3.0415 6.4870 -3.5144 0.3243 0 8
-3.2333 6.5131 -3.5668 0.3196 0 8
-3.4287 6.5356 -3.6202 0.3148 0 8
-3.6276 6.5543 -3.6746 0.3102 0 8
-3.7402 6.4149 -3.6425 0.5141 0 19
-3.8229 6.2321 -3.5863 0.5312 0 19
-3.8392 5.9557 -3.4758 0.5481 0 19
-3.8541 5.6951 -3.3732 0.5648 0 19
-3.8536 5.4287 -3.2656 0.5813 0 19
-4.2429 5.7026 -3.4866 0.8500 0 9
-4.3398 5.5684 -3.4630 0.9572 0 9
-4.4632 5.4700 -3.4630 0.9547 0 9
-4.6349 5.4280 -3.5012 0.7579 0 9
-5.7954 6.4875 -4.2671 0.2671 0 8
-6.0272 6.4507 -4.3305 0.2632 0 8
-6.2609 6.4075 -4.3944 0.2594 0 8
-5.3353 5.2214 -3.6618 0.3836 0 19
-6.7287 5.4990 -4.2626 0.7907 0 19
-6.7608 5.2776 -4.2071 0.8026 0 19
-6.8570 5.1101 -4.1948 0.5308 0 19
-7.1904 5.1126 -4.3278 0.5145 0 19
-7.9491 3.9539 -4.3549 0.6682 0 10
-7.9361 3.7285 -4.3011 0.8626 0 10
-7.9227 3.5082 -4.2502 0.8839 0 10
-7.9197 3.2971 -4.2080 0.8834 0 10
-7.9435 3.1005 -4.1827 0.7950 0 10
-7.9788 2.9104 -4.1660 0.9804 0 10
-8.0207 2.7241 -4.1551 0.9945 0 10
-8.0869 2.5464 -4.1588 0.6287 0 10
-8.1388 2.3641 -4.1573 0.7121 0 10
-8.2203 2.1897 -4.1729 0.7494 0 10
-8.6802 2.1055 -4.3813 0.6289 0 10
-5.4828 -6.9432 -4.3397 0.2781 0 7
-5.2472 -6.9592 -4.2753 0.2823 0 7
-5.0146 -6.9696 -4.2117 0.2866 0 7
-4.7852 -6.9746 -4.1490 0.2909 0 7
-4.5591 -6.9744 -4.0872 0.2953 0 7
-4.3365 -6.9693 -4.0264 0.2998 0 7
-4.1175 -6.9594 -3.9665 0.3043 0 7
-3.9020 -6.9451 -3.9076 0.3089 0 7
-3.6903 -6.9265 -3.8497 0.3135 0 7
-3.4823 -6.9038 -3.7929 0.3182 0 7
-3.2781 -6.8772 -3.7371 0.3230 0 7
-3.0778 -6.8470 -3.6823 0.3278 0 7
-2.8813 -6.8132 -3.6286 0.3326 0 7
-2.6886 -6.7762 -3.5760 0.3375 0 7
-2.4999 -6.7360 -3.5244 0.3425 0 7
-2.3150 -6.6928 -3.4738 0.3474 0 7
-2.1339 -6.6468 -3.4243 0.3525 0 7
-1.9567 -6.5982 -3.3759 0.3575 0 7
-1.7833 -6.5471 -3.3285 0.3626 0 7
-1.6137 -6.4936 -3.2821 0.3677 0 7
-1.4478 -6.4379 -3.2368 0.3729 0 7
-1.2856 -6.3801 -3.1925 0.3781 0 7
-1.1272 -6.3203 -3.1492 0.3833 0 7
-0.9723 -6.2586 -3.1068 0.3885 0 7
-0.8211 -6.1953 -3.0655 0.3937 0 7
-0.6734 -6.1303 -3.0251 0.3990 0 7
-0.5292 -6.0637 -2.9857 0.4042 0 7
-0.3884 -5.9958 -2.9472 0.4095 0 7
-0.2510 -5.9265 -2.9097 0.4148 0 7
-0.1169 -5.8559 -2.8730 0.4201 0 7
0.0138 -5.7842 -2.8373 0.4254 0 7
0.1414 -5.7114 -2.8024 0.4307 0 7
0.2658 -5.6375 -2.7684 0.4360 0 7
0.3871 -5.5628 -2.7353 0.4412 0 7
0.5053 -5.4871 -2.7030 0.4465 0 7
0.6206 -5.4107 -2.6715 0.4518 0 7
0.7329 -5.3334 -2.6408 0.4570 0 7
0.8423 -5.2555 -2.6109 0.4623 0 6
0.9489 -5.1770 -2.5817 0.4675 0 6
1.0527 -5.0978 -2.5534 0.4727 0 7
1.1538 -5.0181 -2.5257 0.4779 0 7
1.2522 -4.9379 -2.4988 0.4830 0 7
1.3480 -4.8572 -2.4726 0.4881 0 7
1.4413 -4.7761 -2.4471 0.4932 0 7
1.5320 -4.6946 -2.4223 0.4982 0 7
1.6203 -4.6128 -2.3982 0.5033 0 7
1.7061 -4.5306 -2.3747 0.5082 0 7
1.7896 -4.4482 -2.3519 0.5132 0 7
1.8708 -4.3655 -2.3297 0.5181 0 7
1.9497 -4.2825 -2.3082 0.5229 0 7
2.0264 -4.1994 -2.2872 0.5277 0 7
2.1009 -4.1161 -2.2668 0.5324 0 7
2.1733 -4.0325 -2.2470 0.5371 0 7
2.2436 -3.9489 -2.2278 0.5417 0 7
2.3118 -3.8651 -2.2092 0.5463 0 7
2.3780 -3.7813 -2.1911 0.5508 0 7
2.4422 -3.6973 -2.1735 0.5553 0 7
2.5045 -3.6132 -2.1565 0.5597 0 7
2.5649 -3.5291 -2.1400 0.5640 0 7
2.6234 -3.4450 -2.1240 0.5682 0 7
2.6801 -3.3607 -2.1085 0.5724 0 7
2.7350 -3.2765 -2.0935 0.5765 0 7
2.7881 -3.1923 -2.0790 0.5805 0 7
2.8394 -3.1080 -2.0650 0.5845 0 7
2.8891 -3.0237 -2.0514 0.5883 0 7
2.9371 -2.9395 -2.0383 0.5921 0 7
2.9834 -2.8552 -2.0256 0.5958 0 7
3.0281 -2.7710 -2.0134 0.5994 0 7
3.0712 -2.6867 -2.0016 0.6030 0 7
3.1128 -2.6026 -1.9903 0.6064 0 7
3.1528 -2.5184 -1.9793 0.6098 0 7
3.1913 -2.4343 -1.9688 0.6130 0 7
3.2282 -2.3502 -1.9587 0.6162 0 7
3.2637 -2.2661 -1.9490 0.6192 0 7
3.2978 -2.1821 -1.9397 0.6222 0 7
3.3304 -2.0982 -1.9308 0.6251 0 7
3.3615 -2.0143 -1.9223 0.6279 0 7
3.3913 -1.9304 -1.9141 0.6305 0 7
3.4197 -1.8466 -1.9064 0.6331 0 6
3.4467 -1.7628 -1.8990 0.6356 0 7
3.4724 -1.6791 -1.8920 0.6379 0 7
3.4967 -1.5954 -1.8853 0.6402 0 6
3.5197 -1.5117 -1.8790 0.6423 0 7
3.5414 -1.4282 -1.8731 0.6443 0 7
3.5619 -1.3446 -1.8675 0.6463 0 7
3.5810 -1.2611 -1.8623 0.6481 0 7
3.5988 -1.1776 -1.8574 0.6498 0 7
3.6154 -1.0942 -1.8529 0.6514 0 7
3.6307 -1.0108 -1.8487 0.6529 0 7
3.6448 -0.9274 -1.8448 0.6542 0 7
3.6577 -0.8441 -1.8413 0.6555 0 7
3.6693 -0.7608 -1.8382 0.6566 0 7
3.6797 -0.6775 -1.8353 0.6576 0 7
3.6889 -0.5943 -1.8328 0.6585 0 7
3.6968 -0.5110 -1.8306 0.6593 0 7
3.7036 -0.4278 -1.8288 0.6600 0 7
3.7092 -0.3446 -1.8273 0.6605 0 7
3.7135 -0.2614 -1.8261 0.6609 0 7
3.7167 -0.1782 -1.8252 0.6613 0 7
3.7186 -0.0951 -1.8247 0.6614 0 7
3.7194 -0.0119 -1.8245 0.6615 0 7
3.7190 0.0713 -1.8246 0.6615 0 7
3.7174 0.1544 -1.8250 0.6613 0 7
3.7145 0.2376 -1.8258 0.6610 0 7
3.7105 0.3208 -1.8269 0.6606 0 7
3.7053 0.4040 -1.8283 0.6601 0 7
3.6989 0.4872 -1.8301 0.6595 0 7
3.6913 0.5704 -1.8321 0.6587 0 7
3.6824 0.6537 -1.8346 0.6579 0 7
3.6724 0.7369 -1.8373 0.6569 0 7
3.6611 0.8202 -1.8404 0.6558 0 7
3.6486 0.9036 -1.8438 0.6546 0 7
3.6349 0.9869 -1.8476 0.6533 0 7
3.6199 1.0703 -1.8516 0.6518 0 7
3.6037 1.1537 -1.8561 0.6503 0 7
3.5862 1.2372 -1.8609 0.6486 0 7
3.5675 1.3207 -1.8660 0.6468 0 7
3.5474 1.4042 -1.8715 0.6449 0 7
3.5261 1.4878 -1.8773 0.6429 0 7
3.5035 1.5715 -1.8835 0.6408 0 7
3.4795 1.6551 -1.8900 0.6386 0 7
3.4542 1.7388 -1.8969 0.6362 0 6
3.4276 1.8226 -1.9042 0.6338 0 6
3.3996 1.9064 -1.9119 0.6313 0 7
3.3702 1.9903 -1.9199 0.6286 0 7
3.3394 2.0742 -1.9283 0.6259 0 7
3.3072 2.1581 -1.9371 0.6231 0 7
3.2736 2.2421 -1.9463 0.6201 0 7
3.2385 2.3261 -1.9559 0.6171 0 7
3.2020 2.4102 -1.9659 0.6139 0 7
3.1640 2.4943 -1.9763 0.6107 0 7
3.1244 2.5785 -1.9871 0.6074 0 7
3.0833 2.6626 -1.9983 0.6040 0 7
3.0406 2.7468 -2.0100 0.6005 0 7
2.9964 2.8311 -2.0221 0.5969 0 7
2.9505 2.9153 -2.0346 0.5932 0 7
2.9030 2.9996 -2.0476 0.5894 0 7
2.8538 3.0839 -2.0610 0.5856 0 7
2.5291 2.8586 -1.8722 0.6709 0 10
2.4499 2.8971 -1.8611 0.4352 0 10
2.3287 2.8821 -1.8175 0.7013 0 10
2.2179 2.8741 -1.7808 0.7137 0 10
2.1175 2.8747 -1.7514 0.7256 0 10
2.0204 2.8753 -1.7238 0.7373 0 10
1.9262 2.8759 -1.6979 0.7485 0 10
1.8421 2.8880 -1.6803 0.9976 0 10
1.7370 2.8623 -1.6423 0.7699 0 10
1.6581 2.8754 -1.6282 0.9647 0 10
1.5889 2.9034 -1.6235 0.9537 0 10
1.5169 2.9253 -1.6164 0.9367 0 10
1.4439 2.9438 -1.6083 0.9361 0 10
1.3697 2.9582 -1.5990 0.8998 0 10
1.2965 2.9727 -1.5908 0.9448 0 10
1.2249 2.9892 -1.5846 0.8532 0 10
1.1634 3.0305 -1.5923 0.5404 0 10
1.1225 3.1315 -1.6318 0.6774 0 10
1.0795 3.2375 -1.6740 0.5070 0 10
1.0382 3.3625 -1.7262 0.4864 0 10
0.9892 3.4778 -1.7736 0.5345 0 10
0.9512 3.6526 -1.8515 0.1759 0 10
1.1283 4.7673 -2.4031 0.9468 0 8
1.0217 4.7928 -2.4038 0.4742 0 8
0.9244 4.8677 -2.4304 0.4690 0 8
0.8245 4.9421 -2.4577 0.4638 0 8
0.7220 5.0159 -2.4857 0.4585 0 8
0.6167 5.0890 -2.5145 0.4533 0 8
0.5087 5.1614 -2.5440 0.4480 0 8
0.3978 5.2331 -2.5743 0.4428 0 8
0.2841 5.3039 -2.6054 0.4375 0 8
0.1675 5.3739 -2.6373 0.4322 0 8
0.0479 5.4429 -2.6700 0.4269 0 8
-0.0747 5.5110 -2.7035 0.4216 0 8
-0.2005 5.5779 -2.7379 0.4163 0 8
-0.3293 5.6437 -2.7731 0.4110 0 8
-0.4613 5.7083 -2.8092 0.4057 0 8
-0.5966 5.7715 -2.8462 0.4005 0 8
-0.7351 5.8333 -2.8840 0.3952 0 8
-0.8770 5.8936 -2.9228 0.3900 0 8
-1.0223 5.9523 -2.9625 0.3847 0 8
-1.1709 6.0093 -3.0031 0.3795 0 8
-1.3231 6.0644 -3.0447 0.3744 0 8
-1.4787 6.1176 -3.0873 0.3692 0 8
-1.6379 6.1688 -3.1308 0.3641 0 8
-1.8006 6.2177 -3.1752 0.3590 0 8
-1.9669 6.2643 -3.2207 0.3539 0 8
0.0132 -5.4695 -2.8375 0.4448 0 7
0.1339 -5.4042 -2.8045 0.4500 0 7
0.2518 -5.3379 -2.7723 0.4552 0 7
0.3669 -5.2704 -2.7408 0.4605 0 7
0.4792 -5.2020 -2.7101 0.4657 0 6
0.5888 -5.1326 -2.6801 0.4709 0 7
0.6957 -5.0623 -2.6509 0.4761 0 7
0.8000 -4.9912 -2.6224 0.4812 0 7
0.9018 -4.9194 -2.5946 0.4864 0 7
1.0010 -4.8468 -2.5675 0.4915 0 7
1.0977 -4.7736 -2.5411 0.4967 0 7
1.1919 -4.6997 -2.5153 0.5017 0 7
1.2838 -4.6252 -2.4902 0.5068 0 7
1.3732 -4.5503 -2.4657 0.5118 0 7
1.4604 -4.4748 -2.4419 0.5168 0 7
1.5452 -4.3988 -2.4187 0.5218 0 7
1.6279 -4.3224 -2.3961 0.5267 0 7
1.7083 -4.2456 -2.3742 0.5316 0 7
1.7865 -4.1685 -2.3528 0.5364 0 7
1.8627 -4.0910 -2.3320 0.5412 0 7
1.9367 -4.0132 -2.3117 0.5459 0 7
2.0087 -3.9351 -2.2920 0.5506 0 7
2.0787 -3.8568 -2.2729 0.5552 0 7
2.1467 -3.7782 -2.2543 0.5598 0 7
2.2128 -3.6994 -2.2363 0.5643 0 7
2.2769 -3.6203 -2.2187 0.5688 0 7
2.3392 -3.5411 -2.2017 0.5732 0 7
2.3997 -3.4618 -2.1852 0.5775 0 7
2.4583 -3.3823 -2.1692 0.5818 0 7
2.5152 -3.3026 -2.1536 0.5860 0 7
2.5703 -3.2229 -2.1386 0.5901 0 7
2.6237 -3.1430 -2.1240 0.5942 0 7
2.6753 -3.0630 -2.1098 0.5982 0 7
2.7254 -2.9830 -2.0962 0.6021 0 7
2.7738 -2.9029 -2.0829 0.6059 0 7
2.8206 -2.8227 -2.0701 0.6096 0 7
2.8658 -2.7425 -2.0578 0.6133 0 7
2.9094 -2.6622 -2.0459 0.6169 0 7
2.9515 -2.5819 -2.0343 0.6204 0 7
2.9921 -2.5015 -2.0233 0.6238 0 7
3.0312 -2.4212 -2.0126 0.6271 0 7
3.0688 -2.3408 -2.0023 0.6303 0 7
3.1050 -2.2603 -1.9924 0.6334 0 7
3.1397 -2.1799 -1.9829 0.6364 0 7
3.1730 -2.0995 -1.9738 0.6394 0 7
3.2049 -2.0191 -1.9651 0.6422 0 7
3.2355 -1.9386 -1.9567 0.6450 0 7
3.2646 -1.8582 -1.9488 0.6476 0 6
3.2925 -1.7778 -1.9412 0.6501 0 7
3.3190 -1.6974 -1.9339 0.6526 0 7
3.3441 -1.6170 -1.9270 0.6549 0 6
3.3680 -1.5366 -1.9205 0.6571 0 6
3.3906 -1.4562 -1.9143 0.6592 0 7
3.4119 -1.3758 -1.9085 0.6613 0 7
3.4319 -1.2955 -1.9030 0.6632 0 7
3.4507 -1.2151 -1.8979 0.6650 0 7
3.4682 -1.1348 -1.8931 0.6666 0 7
3.4845 -1.0545 -1.8887 0.6682 0 7
3.4996 -0.9742 -1.8845 0.6697 0 7
3.5134 -0.8939 -1.8808 0.6710 0 7
3.5260 -0.8136 -1.8773 0.6723 0 7
3.5375 -0.7334 -1.8742 0.6734 0 7
3.5477 -0.6531 -1.8714 0.6744 0 7
3.5567 -0.5729 -1.8689 0.6753 0 7
3.5645 -0.4926 -1.8668 0.6760 0 7
3.5712 -0.4124 -1.8650 0.6767 0 7
3.5767 -0.3322 -1.8635 0.6772 0 7
3.5809 -0.2520 -1.8623 0.6777 0 7
3.5840 -0.1718 -1.8615 0.6780 0 7
3.5860 -0.0916 -1.8609 0.6782 0 7
3.5867 -0.0114 -1.8607 0.6782 0 7
3.5863 0.0688 -1.8608 0.6782 0 7
3.5847 0.1490 -1.8613 0.6780 0 7
3.5819 0.2292 -1.8620 0.6778 0 7
3.5780 0.3094 -1.8631 0.6774 0 7
3.5729 0.3896 -1.8645 0.6769 0 7
3.5665 0.4699 -1.8662 0.6762 0 7
3.5591 0.5501 -1.8683 0.6755 0 7
3.5504 0.6303 -1.8707 0.6746 0 7
3.5405 0.7106 -1.8734 0.6737 0 7
3.5294 0.7908 -1.8764 0.6726 0 7
3.5171 0.8711 -1.8797 0.6714 0 7
3.5036 0.9514 -1.8834 0.6701 0 7
3.4889 1.0317 -1.8875 0.6686 0 7
3.4730 1.1120 -1.8918 0.6671 0 7
3.4558 1.1923 -1.8965 0.6654 0 7
3.4374 1.2726 -1.9015 0.6637 0 7
3.4177 1.3530 -1.9069 0.6618 0 7
3.3968 1.4333 -1.9126 0.6598 0 7
3.3746 1.5137 -1.9187 0.6577 0 7
3.3511 1.5941 -1.9251 0.6555 0 7
3.3263 1.6745 -1.9319 0.6532 0 7
3.3001 1.7549 -1.9391 0.6508 0 6
3.2727 1.8354 -1.9466 0.6483 0 6
3.2439 1.9158 -1.9544 0.6457 0 7
3.2137 1.9962 -1.9627 0.6430 0 7
3.1822 2.0766 -1.9713 0.6402 0 7
3.1493 2.1571 -1.9803 0.6373 0 7
3.1150 2.2375 -1.9897 0.6343 0 7
3.0792 2.3179 -1.9994 0.6312 0 7
3.0420 2.3983 -2.0096 0.6280 0 7
3.0034 2.4787 -2.0202 0.6247 0 7
2.9632 2.5591 -2.0312 0.6213 0 7
2.9215 2.6394 -2.0425 0.6179 0 7
2.8783 2.7197 -2.0544 0.6143 0 7
2.8336 2.7999 -2.0666 0.6107 0 7
2.7872 2.8801 -2.0792 0.6070 0 7
2.7393 2.9602 -2.0923 0.6032 0 7
2.6897 3.0403 -2.1059 0.5993 0 7
2.6385 3.1203 -2.1199 0.5953 0 7
2.3218 2.8736 -1.9165 0.6934 0 10
2.2976 2.9775 -1.9511 0.7056 0 10
2.1176 2.8749 -1.8523 0.7174 0 10
2.0309 2.8904 -1.8326 0.4101 0 10
1.9561 2.9207 -1.8236 0.7400 0 10
1.8348 2.8766 -1.7701 0.7508 0 10
1.7591 2.8989 -1.7591 0.9827 0 10
1.6519 2.8647 -1.7155 0.9151 0 10
1.5806 2.8885 -1.7082 0.9295 0 10
1.5085 2.9093 -1.7001 0.9528 0 10
1.4373 2.9307 -1.6934 0.9566 0 10
1.3630 2.9437 -1.6829 0.9355 0 10
1.2906 2.9593 -1.6749 0.9417 0 10
1.2217 2.9815 -1.6716 0.8860 0 10
1.1557 3.0105 -1.6729 0.7718 0 10
1.1067 3.0875 -1.7015 0.7590 0 10
1.0633 3.1891 -1.7440 0.6641 0 10
1.0126 3.2799 -1.7808 0.5656 0 10
0.9756 3.4301 -1.8500 0.3436 0 10
1.0196 3.9157 -2.0991 0.0798 0 10
1.1216 4.7396 -2.5267 0.5127 0 8
1.0131 4.7527 -2.5210 0.9437 0 8
0.9039 4.7600 -2.5135 0.9465 0 8
0.7952 4.7670 -2.5072 0.9489 0 8
0.6871 4.7744 -2.5024 0.9589 0 8
0.5850 4.8284 -2.5232 0.4724 0 8
0.4822 4.8942 -2.5513 0.4672 0 8
0.3769 4.9591 -2.5801 0.4619 0 8
0.2690 5.0230 -2.6096 0.4567 0 8
0.1584 5.0860 -2.6398 0.4515 0 8
0.0452 5.1479 -2.6707 0.4463 0 8
-0.0708 5.2087 -2.7024 0.4410 0 8
-0.1895 5.2683 -2.7349 0.4358 0 8
-0.3109 5.3267 -2.7681 0.4306 0 8
-0.4352 5.3837 -2.8020 0.4253 0 8
-0.5624 5.4392 -2.8368 0.4201 0 8
-0.6924 5.4933 -2.8723 0.4149 0 8
-0.8254 5.5457 -2.9087 0.4098 0 8
-0.9613 5.5964 -2.9458 0.4046 0 8
-1.1002 5.6454 -2.9838 0.3994 0 8
-1.2420 5.6924 -3.0226 0.3943 0 8
-1.3869 5.7374 -3.0622 0.3892 0 8
-1.5349 5.7803 -3.1026 0.3841 0 8
-1.6859 5.8209 -3.1439 0.3791 0 8
-1.8399 5.8592 -3.1860 0.3741 0 8
-1.9970 5.8950 -3.2289 0.3691 0 8
-2.1571 5.9282 -3.2727 0.3642 0 8
-2.3203 5.9586 -3.3173 0.3593 0 8
-2.4866 5.9861 -3.3627 0.3544 0 8
-2.6559 6.0106 -3.4090 0.3496 0 8
-2.8281 6.0319 -3.4561 0.3449 0 8
-3.0033 6.0498 -3.5040 0.3401 0 8
-3.1814 6.0642 -3.5527 0.3355 0 8
-3.3624 6.0750 -3.6021 0.3309 0 8
-3.5461 6.0819 -3.6523 0.3263 0 8
-3.7111 6.0499 -3.6820 0.5318 0 19
-3.7374 5.7978 -3.5786 0.6123 0 19
-3.8091 5.6285 -3.5258 0.5650 0 19
-3.8239 5.3869 -3.4271 0.5813 0 19
-3.8376 5.1578 -3.3351 0.5973 0 19
-3.9574 5.0778 -3.3398 0.7307 0 19
-4.1358 5.0688 -3.3938 0.7190 0 19
-4.3202 5.0594 -3.4514 0.7070 0 19
-4.5110 5.0497 -3.5127 0.6947 0 19
-4.7087 5.0396 -3.5781 0.6820 0 19
-4.9141 5.0291 -3.6477 0.6690 0 19
-5.1277 5.0182 -3.7221 0.6556 0 19
-6.1373 5.7433 -4.3606 0.2733 0 8
-6.3462 5.6780 -4.4177 0.2698 0 8
-6.5552 5.6063 -4.4748 0.2663 0 8
-6.7642 5.5280 -4.5319 0.2630 0 8
-6.9727 5.4430 -4.5889 0.2597 0 8
-7.1701 5.0982 -4.5641 0.5086 0 19
-7.8868 3.9229 -4.5697 0.4699 0 10
-7.8621 3.6938 -4.5064 0.9502 0 10
-7.8742 3.4867 -4.4675 0.7966 0 10
-7.8775 3.2795 -4.4267 0.8011 0 10
-7.8774 3.0747 -4.3869 0.5968 0 10
-7.8918 2.8787 -4.3580 0.9456 0 10
-7.9110 2.6868 -4.3343 0.9727 0 10
-7.9388 2.4998 -4.3179 0.8649 0 10
-7.9871 2.3200 -4.3148 0.8727 0 10
-8.1458 2.1699 -4.3733 0.8008 0 10
-6.3408 -6.1268 -4.5742 0.2759 0 7
-6.1207 -6.1846 -4.5140 0.2796 0 7
-5.9015 -6.2360 -4.4541 0.2833 0 7
-5.6836 -6.2812 -4.3945 0.2872 0 7
-5.4671 -6.3205 -4.3354 0.2911 0 7
-5.2523 -6.3539 -4.2767 0.2951 0 7
-5.0394 -6.3817 -4.2185 0.2992 0 7
-4.8286 -6.4041 -4.1609 0.3033 0 7
-4.6200 -6.4213 -4.1039 0.3075 0 7
-4.4139 -6.4334 -4.0475 0.3118 0 7
-4.2102 -6.4407 -3.9918 0.3162 0 7
-4.0092 -6.4433 -3.9369 0.3206 0 7
-3.8110 -6.4414 -3.8827 0.3250 0 7
-3.6156 -6.4352 -3.8293 0.3296 0 7
-3.4231 -6.4250 -3.7767 0.3342 0 7
-3.2336 -6.4108 -3.7249 0.3388 0 7
-3.0472 -6.3928 -3.6740 0.3435 0 7
-2.8640 -6.3713 -3.6239 0.3483 0 7
-2.6838 -6.3463 -3.5746 0.3530 0 7
-2.5069 -6.3181 -3.5263 0.3579 0 7
-2.3331 -6.2867 -3.4788 0.3628 0 7
-2.1626 -6.2524 -3.4322 0.3677 0 7
-1.9954 -6.2153 -3.3865 0.3727 0 7
-1.8313 -6.1755 -3.3416 0.3777 0 7
-1.6705 -6.1332 -3.2977 0.3827 0 7
-1.5130 -6.0884 -3.2546 0.3878 0 7
-1.3586 -6.0414 -3.2124 0.3929 0 7
-1.2075 -5.9922 -3.1711 0.3980 0 7
-1.0595 -5.9409 -3.1307 0.4031 0 7
-0.9147 -5.8878 -3.0911 0.4083 0 7
-0.7730 -5.8327 -3.0524 0.4135 0 7
-0.6345 -5.7760 -3.0145 0.4187 0 7
-0.4990 -5.7176 -2.9775 0.4239 0 7
-0.3665 -5.6577 -2.9412 0.4291 0 7
-0.2370 -5.5963 -2.9059 0.4343 0 7
-0.1105 -5.5336 -2.8713 0.4395 0 7
0.0131 -5.4696 -2.8375 0.4448 0 7
0.1338 -5.4043 -2.8045 0.4500 0 7
0.2517 -5.3379 -2.7723 0.4552 0 7
0.3668 -5.2705 -2.7408 0.4605 0 7
0.4791 -5.2020 -2.7101 0.4657 0 6
0.5887 -5.1326 -2.6802 0.4709 0 7
0.6956 -5.0624 -2.6509 0.4761 0 7
0.7999 -4.9913 -2.6224 0.4812 0 7
0.9017 -4.9194 -2.5946 0.4864 0 7
1.0009 -4.8469 -2.5675 0.4915 0 7
1.0976 -4.7736 -2.5411 0.4966 0 7
1.1918 -4.6998 -2.5153 0.5017 0 7
1.2837 -4.6253 -2.4902 0.5068 0 7
1.3731 -4.5503 -2.4658 0.5118 0 7
1.4603 -4.4748 -2.4419 0.5168 0 7
1.5451 -4.3989 -2.4187 0.5218 0 7
1.6278 -4.3225 -2.3962 0.5267 0 7
1.7082 -4.2457 -2.3742 0.5316 0 7
1.7864 -4.1686 -2.3528 0.5364 0 7
1.8626 -4.0911 -2.3320 0.5412 0 7
1.9366 -4.0133 -2.3117 0.5459 0 7
2.0086 -3.9352 -2.2921 0.5506 0 7
2.0786 -3.8568 -2.2729 0.5552 0 7
2.1466 -3.7782 -2.2543 0.5598 0 7
2.2127 -3.6994 -2.2363 0.5643 0 7
2.2769 -3.6204 -2.2187 0.5688 0 7
2.3391 -3.5412 -2.2017 0.5732 0 7
2.3996 -3.4619 -2.1852 0.5775 0 7
2.4582 -3.3824 -2.1692 0.5818 0 7
2.5151 -3.3027 -2.1536 0.5860 0 7
2.5702 -3.2230 -2.1386 0.5901 0 7
2.6236 -3.1431 -2.1240 0.5942 0 7
2.6753 -3.0631 -2.1098 0.5982 0 7
2.7253 -2.9831 -2.0962 0.6021 0 7
2.7737 -2.9030 -2.0829 0.6059 0 7
2.8205 -2.8228 -2.0702 0.6096 0 7
2.8657 -2.7426 -2.0578 0.6133 0 7
2.9094 -2.6623 -2.0459 0.6169 0 7
2.9515 -2.5820 -2.0344 0.6204 0 7
2.9920 -2.5016 -2.0233 0.6238 0 7
3.0311 -2.4212 -2.0126 0.6271 0 7
3.0688 -2.3408 -2.0023 0.6303 0 7
3.1049 -2.2604 -1.9924 0.6334 0 7
3.1397 -2.1800 -1.9829 0.6364 0 7
3.1730 -2.0996 -1.9738 0.6394 0 7
3.2049 -2.0191 -1.9651 0.6422 0 7
3.2354 -1.9387 -1.9567 0.6450 0 7
3.2646 -1.8583 -1.9488 0.6476 0 6
3.2924 -1.7779 -1.9412 0.6501 0 7
3.3189 -1.6975 -1.9339 0.6526 0 7
3.3441 -1.6170 -1.9270 0.6549 0 6
3.3680 -1.5367 -1.9205 0.6571 0 6
3.3906 -1.4563 -1.9143 0.6592 0 7
3.4119 -1.3759 -1.9085 0.6613 0 7
3.4319 -1.2955 -1.9030 0.6632 0 7
3.4507 -1.2152 -1.8979 0.6650 0 7
3.4682 -1.1349 -1.8931 0.6666 0 7
3.4845 -1.0546 -1.8887 0.6682 0 7
3.4996 -0.9743 -1.8845 0.6697 0 7
3.5134 -0.8940 -1.8808 0.6710 0 7
3.5260 -0.8137 -1.8773 0.6722 0 7
3.5375 -0.7334 -1.8742 0.6734 0 7
3.5477 -0.6532 -1.8714 0.6744 0 7
3.5567 -0.5730 -1.8689 0.6753 0 7
3.5645 -0.4927 -1.8668 0.6760 0 7
3.5712 -0.4125 -1.8650 0.6767 0 7
3.5766 -0.3323 -1.8635 0.6772 0 7
3.5809 -0.2521 -1.8623 0.6777 0 7
3.5840 -0.1719 -1.8615 0.6780 0 7
3.5860 -0.0917 -1.8609 0.6782 0 7
3.5867 -0.0115 -1.8607 0.6782 0 7
3.5863 0.0687 -1.8608 0.6782 0 7
3.5847 0.1489 -1.8613 0.6780 0 7
3.5819 0.2291 -1.8620 0.6778 0 7
3.5780 0.3093 -1.8631 0.6774 0 7
3.5729 0.3896 -1.8645 0.6769 0 7
3.5666 0.4698 -1.8662 0.6762 0 7
3.5591 0.5500 -1.8683 0.6755 0 7
3.5504 0.6302 -1.8707 0.6746 0 7
3.5405 0.7105 -1.8734 0.6737 0 7
3.5294 0.7907 -1.8764 0.6726 0 7
3.5172 0.8710 -1.8797 0.6714 0 7
3.5037 0.9513 -1.8834 0.6701 0 7
3.4889 1.0316 -1.8875 0.6686 0 7
3.4730 1.1119 -1.8918 0.6671 0 7
3.4558 1.1922 -1.8965 0.6654 0 7
3.4374 1.2725 -1.9015 0.6637 0 7
3.4177 1.3529 -1.9069 0.6618 0 7
3.3968 1.4333 -1.9126 0.6598 0 7
3.3746 1.5136 -1.9187 0.6577 0 7
3.3511 1.5940 -1.9251 0.6556 0 7
3.3263 1.6744 -1.9319 0.6532 0 7
3.3002 1.7548 -1.9391 0.6508 0 6
3.2727 1.8353 -1.9466 0.6483 0 6
3.2439 1.9157 -1.9544 0.6457 0 7
3.2138 1.9961 -1.9627 0.6430 0 7
3.1823 2.0766 -1.9713 0.6402 0 7
3.1493 2.1570 -1.9803 0.6373 0 7
3.1150 2.2374 -1.9897 0.6343 0 7
3.0793 2.3178 -1.9994 0.6312 0 7
3.0421 2.3982 -2.0096 0.6280 0 7
3.0034 2.4786 -2.0202 0.6247 0 7
2.9632 2.5590 -2.0311 0.6213 0 7
2.9216 2.6393 -2.0425 0.6179 0 7
2.8784 2.7196 -2.0543 0.6143 0 7
2.8336 2.7998 -2.0666 0.6107 0 7
2.7873 2.8800 -2.0792 0.6070 0 7
2.7394 2.9602 -2.0923 0.6032 0 7
2.6898 3.0402 -2.1059 0.5993 0 7
2.6386 3.1202 -2.1199 0.5953 0 7
2.3219 2.8736 -1.9166 0.6934 0 10
2.2977 2.9775 -1.9511 0.7055 0 10
2.1177 2.8749 -1.8524 0.7174 0 10
2.0309 2.8902 -1.8325 0.4102 0 10
1.9562 2.9207 -1.8237 0.7400 0 10
1.8349 2.8766 -1.7701 0.7507 0 10
1.7591 2.8988 -1.7591 0.9827 0 10
1.6519 2.8647 -1.7155 0.9151 0 10
1.5807 2.8885 -1.7082 0.9295 0 10
1.5085 2.9093 -1.7001 0.9528 0 10
1.4374 2.9307 -1.6934 0.9566 0 10
1.3630 2.9437 -1.6829 0.9355 0 10
1.2907 2.9592 -1.6749 0.9417 0 10
1.2218 2.9815 -1.6716 0.8860 0 10
1.1557 3.0104 -1.6729 0.7718 0 10
1.1067 3.0874 -1.7015 0.7591 0 10
1.0633 3.1890 -1.7439 0.6642 0 10
1.0127 3.2798 -1.7808 0.5656 0 10
0.9756 3.4299 -1.8499 0.3436 0 10
1.0194 3.9147 -2.0986 0.0798 0 10
1.1217 4.7395 -2.5267 0.5127 0 8
1.0132 4.7527 -2.5210 0.9437 0 8
0.9040 4.7600 -2.5135 0.9465 0 8
0.7953 4.7670 -2.5072 0.9489 0 8
0.6872 4.7743 -2.5024 0.9589 0 8
0.5851 4.8283 -2.5232 0.4724 0 8
0.4823 4.8941 -2.5513 0.4672 0 8
0.3770 4.9590 -2.5800 0.4619 0 8
0.2691 5.0230 -2.6095 0.4567 0 8
0.1585 5.0859 -2.6398 0.4515 0 8
0.0453 5.1479 -2.6707 0.4463 0 8
-0.0706 5.2087 -2.7024 0.4410 0 8
-0.1893 5.2683 -2.7348 0.4358 0 8
-0.3108 5.3266 -2.7680 0.4306 0 8
-0.4351 5.3836 -2.8020 0.4254 0 8
-0.5622 5.4392 -2.8368 0.4201 0 8
-0.6923 5.4932 -2.8723 0.4149 0 8
-0.8252 5.5456 -2.9086 0.4098 0 8
-0.9611 5.5964 -2.9458 0.4046 0 8
-1.1000 5.6453 -2.9837 0.3994 0 8
-1.2419 5.6923 -3.0225 0.3943 0 8
-1.3868 5.7373 -3.0621 0.3892 0 8
-1.5347 5.7802 -3.1026 0.3841 0 8
-1.6857 5.8209 -3.1438 0.3791 0 8
-1.8397 5.8592 -3.1859 0.3741 0 8
0.0125 -5.1810 -2.8377 0.4639 0 6
0.1269 -5.1223 -2.8064 0.4691 0 7
0.2388 -5.0624 -2.7758 0.4743 0 7
0.3481 -5.0014 -2.7459 0.4794 0 7
0.4550 -4.9393 -2.7167 0.4846 0 7
0.5594 -4.8761 -2.6882 0.4897 0 7
0.6613 -4.8120 -2.6603 0.4949 0 7
0.7609 -4.7469 -2.6331 0.5000 0 7
0.8581 -4.6810 -2.6065 0.5051 0 7
0.9530 -4.6143 -2.5806 0.5101 0 7
1.0455 -4.5468 -2.5553 0.5152 0 7
1.1358 -4.4786 -2.5306 0.5202 0 7
1.2239 -4.4098 -2.5065 0.5252 0 7
1.3098 -4.3402 -2.4831 0.5302 0 7
1.3936 -4.2701 -2.4602 0.5351 0 7
1.4752 -4.1995 -2.4379 0.5400 0 7
1.5547 -4.1283 -2.4161 0.5449 0 7
1.6322 -4.0566 -2.3949 0.5497 0 7
1.7077 -3.9845 -2.3743 0.5545 0 7
1.7811 -3.9120 -2.3542 0.5592 0 7
1.8527 -3.8390 -2.3347 0.5639 0 7
1.9222 -3.7657 -2.3157 0.5685 0 7
1.9899 -3.6921 -2.2972 0.5731 0 7
2.0558 -3.6181 -2.2792 0.5776 0 7
2.1197 -3.5438 -2.2617 0.5821 0 7
2.1819 -3.4693 -2.2447 0.5865 0 7
2.2423 -3.3945 -2.2282 0.5908 0 7
2.3010 -3.3194 -2.2122 0.5951 0 7
2.3579 -3.2442 -2.1966 0.5993 0 7
2.4132 -3.1687 -2.1815 0.6035 0 7
2.4667 -3.0931 -2.1668 0.6076 0 7
2.5187 -3.0173 -2.1527 0.6116 0 7
2.5690 -2.9413 -2.1389 0.6155 0 7
2.6177 -2.8651 -2.1256 0.6193 0 7
2.6649 -2.7889 -2.1127 0.6231 0 7
2.7105 -2.7125 -2.1002 0.6268 0 7
2.7545 -2.6360 -2.0882 0.6304 0 7
2.7971 -2.5594 -2.0766 0.6340 0 7
2.8382 -2.4828 -2.0653 0.6374 0 7
2.8778 -2.4060 -2.0545 0.6408 0 7
2.9160 -2.3292 -2.0441 0.6441 0 7
2.9528 -2.2523 -2.0340 0.6472 0 7
2.9881 -2.1753 -2.0243 0.6503 0 7
3.0221 -2.0983 -2.0151 0.6533 0 7
3.0547 -2.0212 -2.0061 0.6562 0 7
3.0859 -1.9441 -1.9976 0.6590 0 7
3.1158 -1.8669 -1.9894 0.6617 0 6
3.1444 -1.7898 -1.9816 0.6643 0 6
3.1716 -1.7125 -1.9742 0.6669 0 7
3.1976 -1.6353 -1.9671 0.6693 0 6
3.2223 -1.5580 -1.9603 0.6716 0 6
3.2457 -1.4808 -1.9539 0.6738 0 7
3.2678 -1.4035 -1.9479 0.6759 0 7
3.2887 -1.3261 -1.9422 0.6778 0 7
3.3084 -1.2488 -1.9368 0.6797 0 7
3.3268 -1.1715 -1.9318 0.6815 0 7
3.3440 -1.0942 -1.9271 0.6832 0 7
3.3600 -1.0168 -1.9227 0.6847 0 7
3.3748 -0.9394 -1.9187 0.6861 0 7
3.3884 -0.8621 -1.9149 0.6875 0 7
3.4008 -0.7847 -1.9116 0.6887 0 7
3.4120 -0.7073 -1.9085 0.6898 0 7
3.4220 -0.6300 -1.9057 0.6908 0 7
3.4309 -0.5526 -1.9033 0.6917 0 7
3.4386 -0.4752 -1.9012 0.6924 0 7
3.4451 -0.3979 -1.8994 0.6931 0 7
3.4505 -0.3205 -1.8980 0.6936 0 7
3.4547 -0.2431 -1.8968 0.6940 0 7
3.4577 -0.1657 -1.8960 0.6944 0 7
3.4596 -0.0884 -1.8955 0.6945 0 7
3.4604 -0.0110 -1.8953 0.6946 0 7
3.4600 0.0664 -1.8954 0.6946 0 7
3.4584 0.1438 -1.8958 0.6944 0 7
3.4557 0.2211 -1.8965 0.6941 0 7
3.4518 0.2985 -1.8976 0.6938 0 7
3.4467 0.3759 -1.8990 0.6933 0 7
3.4405 0.4532 -1.9007 0.6926 0 7
3.4332 0.5306 -1.9027 0.6919 0 7
3.4247 0.6080 -1.9050 0.6911 0 7
3.4150 0.6854 -1.9077 0.6901 0 7
3.4041 0.7627 -1.9107 0.6890 0 7
3.3920 0.8401 -1.9139 0.6878 0 7
3.3788 0.9175 -1.9176 0.6865 0 7
3.3643 0.9948 -1.9215 0.6851 0 7
3.3487 1.0722 -1.9258 0.6836 0 7
3.3318 1.1495 -1.9304 0.6820 0 7
3.3137 1.2269 -1.9353 0.6802 0 7
3.2944 1.3042 -1.9406 0.6784 0 7
3.2739 1.3815 -1.9462 0.6764 0 7
3.2521 1.4588 -1.9522 0.6744 0 7
3.2291 1.5361 -1.9585 0.6722 0 7
3.2048 1.6133 -1.9651 0.6699 0 7
3.1792 1.6906 -1.9721 0.6675 0 7
3.1523 1.7678 -1.9795 0.6651 0 6
3.1241 1.8450 -1.9872 0.6625 0 6
3.0946 1.9222 -1.9952 0.6598 0 7
3.0637 1.9993 -2.0037 0.6570 0 7
3.0315 2.0764 -2.0125 0.6542 0 7
2.9979 2.1534 -2.0217 0.6512 0 7
2.9630 2.2304 -2.0312 0.6481 0 7
2.9266 2.3073 -2.0412 0.6450 0 7
2.8888 2.3842 -2.0515 0.6417 0 7
2.8496 2.4609 -2.0622 0.6384 0 7
2.8089 2.5377 -2.0733 0.6350 0 7
2.7668 2.6143 -2.0848 0.6315 0 7
2.7231 2.6908 -2.0968 0.6279 0 7
2.6780 2.7672 -2.1091 0.6242 0 7
2.6313 2.8435 -2.1219 0.6204 0 7
2.5830 2.9196 -2.1351 0.6166 0 7
2.5331 2.9957 -2.1487 0.6127 0 7
2.3219 2.8738 -2.0235 0.6851 0 10
2.2910 2.9689 -2.0539 0.7000 0 10
2.1506 2.9197 -1.9861 0.7088 0 10
2.0407 2.9044 -1.9441 0.7201 0 10
1.9367 2.8918 -1.9062 0.4097 0 10
1.8349 2.8768 -1.8689 0.7417 0 10
1.7513 2.8860 -1.8490 0.7520 0 10
1.6510 2.8632 -1.8102 0.7619 0 10
1.5769 2.8818 -1.7992 0.8836 0 10
1.5050 2.9026 -1.7908 0.8710 0 10
1.4336 2.9230 -1.7831 0.8747 0 10
1.3621 2.9418 -1.7756 0.8763 0 10
1.2899 2.9577 -1.7673 0.8611 0 10
1.2215 2.9810 -1.7645 0.8809 0 10
1.1554 3.0097 -1.7657 0.7774 0 10
1.0994 3.0670 -1.7845 0.4738 0 10
1.0589 3.1760 -1.8336 0.5368 0 10
1.0148 3.2871 -1.8842 0.3475 0 10
0.9921 3.4884 -1.9864 0.4814 0 10
1.1600 4.4547 -2.5212 0.5360 0 8
1.0699 4.5212 -2.5447 0.5310 0 8
0.9777 4.5870 -2.5687 0.5261 0 8
0.8833 4.6519 -2.5934 0.5210 0 8
0.7867 4.7161 -2.6187 0.5160 0 8
0.6838 4.7514 -2.6292 0.9439 0 8
0.5765 4.7580 -2.6250 0.9454 0 8
0.4694 4.7643 -2.6221 0.9465 0 8
0.3626 4.7705 -2.6203 0.9471 0 8
0.2558 4.7770 -2.6201 0.9553 0 8
0.1502 4.8215 -2.6420 0.4706 0 8
0.0428 4.8772 -2.6714 0.4654 0 8
-0.0671 4.9359 -2.7037 0.9449 0 8
-0.1793 4.9850 -2.7321 0.4551 0 8
-0.2940 5.0369 -2.7634 0.4499 0 8
-0.4113 5.0874 -2.7955 0.4447 0 8
-0.5311 5.1364 -2.8282 0.4396 0 8
-0.6534 5.1839 -2.8617 0.4345 0 8
-0.7783 5.2296 -2.8958 0.4293 0 8
-0.9058 5.2736 -2.9307 0.4242 0 8
-1.0359 5.3158 -2.9662 0.4191 0 8
-1.1686 5.3560 -3.0025 0.4141 0 8
-1.3040 5.3942 -3.0395 0.4090 0 8
-1.4419 5.4302 -3.0772 0.4040 0 8
-1.5825 5.4640 -3.1156 0.3990 0 8
-1.7256 5.4954 -3.1548 0.3941 0 8
-1.8714 5.5243 -3.1946 0.3892 0 8
-2.0198 5.5507 -3.2351 0.3843 0 8
-2.1707 5.5743 -3.2764 0.3795 0 8
-2.3242 5.5951 -3.3184 0.3747 0 8
-2.4802 5.6130 -3.3610 0.3699 0 8
-2.6386 5.6277 -3.4043 0.3652 0 8
-2.7995 5.6392 -3.4483 0.3606 0 8
-2.9627 5.6473 -3.4929 0.3559 0 8
-3.1282 5.6520 -3.5381 0.3514 0 8
-3.2960 5.6529 -3.5840 0.3469 0 8
-3.4659 5.6501 -3.6304 0.3425 0 8
-3.6378 5.6433 -3.6774 0.3381 0 8
-3.7000 5.4673 -3.6157 0.5650 0 19
-3.7800 5.3250 -3.5766 0.5810 0 19
-3.7785 5.0784 -3.4669 0.5969 0 19
-3.9556 5.0755 -3.5244 0.7223 0 19
-4.1339 5.0664 -3.5814 0.7108 0 19
-4.3182 5.0571 -3.6421 0.6989 0 19
-4.5088 5.0473 -3.7068 0.6867 0 19
-4.7065 5.0372 -3.7757 0.6742 0 19
-4.9117 5.0267 -3.8492 0.6613 0 19
-5.1251 5.0157 -3.9276 0.6481 0 19
-5.6273 5.2661 -4.2212 0.2945 0 8
-5.8126 5.2006 -4.2718 0.2910 0 8
-5.9975 5.1294 -4.3224 0.2876 0 8
-6.1820 5.0522 -4.3728 0.2843 0 8
-6.3712 4.9735 -4.4268 0.5771 0 8
-6.5484 4.8802 -4.4730 0.2785 0 8
-6.7738 4.8164 -4.5522 0.5452 0 8
-7.0936 4.8087 -4.6938 0.5287 0 8
-7.8390 2.8594 -4.5702 0.4247 0 10
-7.8430 2.6638 -4.5366 0.9644 0 10
-7.8675 2.4773 -4.5176 0.9244 0 10
-7.9419 2.3069 -4.5296 0.8507 0 10
-8.0935 2.1559 -4.5874 0.5091 0 10
-7.1800 -5.0366 -4.8036 0.2741 0 7
-6.9887 -5.1393 -4.7513 0.2771 0 6
-6.7958 -5.2355 -4.6986 0.2802 0 7
-6.6016 -5.3253 -4.6455 0.2834 0 7
-6.4065 -5.4087 -4.5922 0.2867 0 7
-6.2108 -5.4859 -4.5386 0.2901 0 7
-6.0147 -5.5570 -4.4851 0.2935 0 7
-5.8185 -5.6221 -4.4314 0.2971 0 7
-5.6226 -5.6813 -4.3779 0.3007 0 7
-5.4271 -5.7347 -4.3245 0.3044 0 7
-5.2323 -5.7825 -4.2712 0.3082 0 7
-5.0384 -5.8249 -4.2182 0.3121 0 7
-4.8456 -5.8619 -4.1655 0.3160 0 7
-4.6541 -5.8938 -4.1132 0.3201 0 7
-4.4641 -5.9207 -4.0612 0.3242 0 7
-4.2757 -5.9427 -4.0097 0.3283 0 7
-4.0891 -5.9600 -3.9587 0.3326 0 7
-3.9044 -5.9728 -3.9082 0.3368 0 7
-3.7217 -5.9812 -3.8583 0.3412 0 7
-3.5411 -5.9853 -3.8090 0.3456 0 7
-3.3629 -5.9854 -3.7602 0.3501 0 7
-3.1869 -5.9817 -3.7121 0.3546 0 7
-3.0134 -5.9741 -3.6647 0.3592 0 7
-2.8423 -5.9629 -3.6180 0.3639 0 7
-2.6738 -5.9483 -3.5719 0.3686 0 7
-2.5079 -5.9303 -3.5266 0.3733 0 7
-2.3446 -5.9092 -3.4819 0.3781 0 7
-2.1840 -5.8850 -3.4380 0.3829 0 7
-2.0262 -5.8579 -3.3949 0.3878 0 7
-1.8710 -5.8280 -3.3525 0.3927 0 7
-1.7186 -5.7955 -3.3108 0.3976 0 7
-1.5690 -5.7604 -3.2699 0.4026 0 7
-1.4221 -5.7229 -3.2298 0.4076 0 7
-1.2781 -5.6831 -3.1904 0.4126 0 7
-1.1367 -5.6411 -3.1518 0.4177 0 7
-0.9982 -5.5971 -3.1139 0.4228 0 7
-0.8624 -5.5510 -3.0768 0.4279 0 7
-0.7293 -5.5031 -3.0404 0.4330 0 7
-0.5990 -5.4534 -3.0048 0.4381 0 7
-0.4714 -5.4020 -2.9699 0.4433 0 7
-0.3465 -5.3489 -2.9358 0.4484 0 7
-0.2242 -5.2944 -2.9024 0.4536 0 7
-0.1046 -5.2384 -2.8697 0.4588 0 6
0.0124 -5.1810 -2.8377 0.4639 0 6
0.1268 -5.1224 -2.8064 0.4691 0 7
0.2387 -5.0625 -2.7758 0.4743 0 7
0.3480 -5.0015 -2.7459 0.4794 0 7
0.4549 -4.9393 -2.7167 0.4846 0 7
0.5593 -4.8762 -2.6882 0.4897 0 7
0.6612 -4.8121 -2.6603 0.4949 0 7
0.7608 -4.7470 -2.6331 0.5000 0 7
0.8580 -4.6811 -2.6066 0.5051 0 7
0.9529 -4.6144 -2.5806 0.5101 0 7
1.0454 -4.5469 -2.5553 0.5152 0 7
1.1357 -4.4787 -2.5306 0.5202 0 7
1.2238 -4.4098 -2.5066 0.5252 0 7
1.3097 -4.3403 -2.4831 0.5302 0 7
1.3935 -4.2702 -2.4602 0.5351 0 7
1.4751 -4.1996 -2.4379 0.5400 0 7
1.5547 -4.1284 -2.4161 0.5449 0 7
1.6321 -4.0567 -2.3950 0.5497 0 7
1.7076 -3.9846 -2.3743 0.5545 0 7
1.7811 -3.9121 -2.3543 0.5592 0 7
1.8526 -3.8391 -2.3347 0.5639 0 7
1.9222 -3.7658 -2.3157 0.5685 0 7
1.9899 -3.6922 -2.2972 0.5731 0 7
2.0557 -3.6182 -2.2792 0.5776 0 7
2.1197 -3.5439 -2.2617 0.5821 0 7
2.1819 -3.4694 -2.2447 0.5865 0 7
2.2423 -3.3946 -2.2282 0.5908 0 7
2.3009 -3.3195 -2.2122 0.5951 0 7
2.3579 -3.2443 -2.1966 0.5993 0 7
2.4131 -3.1688 -2.1815 0.6035 0 7
2.4667 -3.0931 -2.1669 0.6076 0 7
2.5186 -3.0173 -2.1527 0.6116 0 7
2.5689 -2.9414 -2.1389 0.6155 0 7
2.6177 -2.8652 -2.1256 0.6193 0 7
2.6648 -2.7890 -2.1127 0.6231 0 7
2.7104 -2.7126 -2.1002 0.6268 0 7
2.7545 -2.6361 -2.0882 0.6304 0 7
2.7971 -2.5595 -2.0766 0.6340 0 7
2.8382 -2.4828 -2.0653 0.6374 0 7
2.8778 -2.4061 -2.0545 0.6408 0 7
2.9160 -2.3293 -2.0441 0.6441 0 7
2.9527 -2.2523 -2.0340 0.6472 0 7
2.9881 -2.1754 -2.0244 0.6503 0 7
3.0221 -2.0984 -2.0151 0.6533 0 7
3.0546 -2.0213 -2.0062 0.6562 0 7
3.0859 -1.9442 -1.9976 0.6590 0 7
3.1158 -1.8670 -1.9894 0.6617 0 6
3.1444 -1.7898 -1.9816 0.6643 0 6
3.1716 -1.7126 -1.9742 0.6668 0 7
3.1976 -1.6354 -1.9671 0.6693 0 6
3.2223 -1.5581 -1.9603 0.6716 0 6
3.2457 -1.4808 -1.9539 0.6738 0 7
3.2678 -1.4035 -1.9479 0.6758 0 7
3.2887 -1.3262 -1.9422 0.6778 0 7
3.3084 -1.2489 -1.9368 0.6797 0 7
3.3268 -1.1716 -1.9318 0.6815 0 7
3.3440 -1.0942 -1.9271 0.6832 0 7
3.3600 -1.0169 -1.9227 0.6847 0 7
3.3748 -0.9395 -1.9187 0.6861 0 7
3.3883 -0.8622 -1.9149 0.6875 0 7
3.4007 -0.7848 -1.9116 0.6887 0 7
3.4120 -0.7074 -1.9085 0.6898 0 7
3.4220 -0.6301 -1.9057 0.6908 0 7
3.4309 -0.5527 -1.9033 0.6917 0 7
3.4386 -0.4753 -1.9012 0.6924 0 7
3.4451 -0.3979 -1.8994 0.6931 0 7
3.4505 -0.3206 -1.8980 0.6936 0 7
3.4547 -0.2432 -1.8968 0.6940 0 7
3.4577 -0.1658 -1.8960 0.6944 0 7
3.4596 -0.0884 -1.8955 0.6945 0 7
3.4604 -0.0111 -1.8953 0.6946 0 7
3.4600 0.0663 -1.8954 0.6946 0 7
3.4584 0.1437 -1.8958 0.6944 0 7
3.4557 0.2210 -1.8965 0.6941 0 7
3.4518 0.2984 -1.8976 0.6938 0 7
3.4467 0.3758 -1.8990 0.6933 0 7
3.4406 0.4532 -1.9007 0.6926 0 7
3.4332 0.5305 -1.9027 0.6919 0 7
3.4247 0.6079 -1.9050 0.6911 0 7
3.4150 0.6853 -1.9077 0.6901 0 7
3.4041 0.7627 -1.9106 0.6890 0 7
3.3920 0.8400 -1.9139 0.6878 0 7
3.3788 0.9174 -1.9176 0.6865 0 7
3.3643 0.9947 -1.9215 0.6851 0 7
3.3487 1.0721 -1.9258 0.6836 0 7
3.3318 1.1494 -1.9304 0.6820 0 7
3.3138 1.2268 -1.9353 0.6802 0 7
3.2945 1.3041 -1.9406 0.6784 0 7
3.2739 1.3814 -1.9462 0.6764 0 7
3.2521 1.4587 -1.9522 0.6744 0 7
3.2291 1.5360 -1.9585 0.6722 0 7
3.2048 1.6133 -1.9651 0.6699 0 7
3.1792 1.6905 -1.9721 0.6675 0 7
3.1523 1.7677 -1.9795 0.6651 0 6
3.1241 1.8449 -1.9872 0.6625 0 6
3.0946 1.9221 -1.9952 0.6598 0 7
3.0637 1.9992 -2.0037 0.6570 0 7
3.0315 2.0763 -2.0125 0.6542 0 7
2.9980 2.1533 -2.0217 0.6512 0 7
2.9630 2.2303 -2.0312 0.6481 0 7
2.9266 2.3072 -2.0411 0.6450 0 7
2.8889 2.3841 -2.0515 0.6417 0 7
2.8497 2.4609 -2.0622 0.6384 0 7
2.8090 2.5376 -2.0733 0.6350 0 7
2.7668 2.6142 -2.0848 0.6315 0 7
2.7232 2.6907 -2.0968 0.6279 0 7
2.6780 2.7671 -2.1091 0.6242 0 7
2.6313 2.8434 -2.1219 0.6204 0 7
2.5830 2.9196 -2.1351 0.6166 0 7
2.5332 2.9956 -2.1487 0.6127 0 7
2.3220 2.8738 -2.0236 0.6850 0 10
2.2910 2.9688 -2.0539 0.7000 0 10
2.1507 2.9197 -1.9861 0.7088 0 10
2.0408 2.9044 -1.9442 0.7201 0 10
1.9368 2.8917 -1.9062 0.4097 0 10
1.8350 2.8768 -1.8689 0.7417 0 10
1.7514 2.8860 -1.8490 0.7520 0 10
1.6511 2.8632 -1.8102 0.7619 0 10
1.5770 2.8817 -1.7992 0.8836 0 10
1.5051 2.9026 -1.7908 0.8710 0 10
1.4336 2.9230 -1.7831 0.8747 0 10
1.3621 2.9418 -1.7756 0.8763 0 10
1.2900 2.9577 -1.7673 0.8611 0 10
1.2216 2.9810 -1.7645 0.8809 0 10
1.1554 3.0097 -1.7657 0.7774 0 10
1.0994 3.0670 -1.7844 0.4738 0 10
1.0589 3.1759 -1.8336 0.5368 0 10
1.0149 3.2869 -1.8841 0.3475 0 10
0.9922 3.4882 -1.9863 0.4814 0 10
1.1601 4.4547 -2.5212 0.5360 0 8
1.0700 4.5211 -2.5447 0.5310 0 8
0.9778 4.5869 -2.5687 0.5261 0 8
0.8835 4.6519 -2.5934 0.5211 0 8
0.7868 4.7160 -2.6187 0.5160 0 8
0.6839 4.7514 -2.6292 0.9439 0 8
0.5766 4.7580 -2.6250 0.9454 0 8
0.4696 4.7643 -2.6221 0.9465 0 8
0.3627 4.7705 -2.6203 0.9471 0 8
0.2559 4.7770 -2.6201 0.9553 0 8
0.1503 4.8215 -2.6420 0.4706 0 8
0.0429 4.8772 -2.6714 0.4654 0 8
-0.0669 4.9359 -2.7037 0.9449 0 8
-0.1791 4.9850 -2.7321 0.4551 0 8
-0.2939 5.0369 -2.7634 0.4499 0 8
-0.4112 5.0874 -2.7955 0.4447 0 8
-0.5309 5.1364 -2.8282 0.4396 0 8
-0.6533 5.1838 -2.8616 0.4345 0 8
-0.7782 5.2296 -2.8958 0.4293 0 8
-0.9057 5.2736 -2.9306 0.4242 0 8
-1.0358 5.3157 -2.9662 0.4191 0 8
-1.1685 5.3559 -3.0025 0.4141 0 8
-1.3038 5.3941 -3.0395 0.4090 0 8
-1.4418 5.4302 -3.0772 0.4040 0 8
-1.5823 5.4639 -3.1156 0.3991 0 8
-1.7255 5.4954 -3.1547 0.3941 0 8
0.0119 -4.9152 -2.8378 0.4829 0 7
0.1205 -4.8623 -2.8081 0.4880 0 7
0.2268 -4.8082 -2.7791 0.4931 0 7
0.3308 -4.7528 -2.7506 0.4982 0 7
0.4326 -4.6962 -2.7228 0.5033 0 7
0.5321 -4.6385 -2.6956 0.5083 0 7
0.6294 -4.5799 -2.6690 0.5134 0 7
0.7245 -4.5202 -2.6430 0.5184 0 7
0.8175 -4.4596 -2.6176 0.5235 0 7
0.9083 -4.3981 -2.5928 0.5285 0 7
0.9970 -4.3357 -2.5686 0.5335 0 7
1.0836 -4.2726 -2.5449 0.5384 0 7
1.1682 -4.2088 -2.5218 0.5434 0 7
1.2507 -4.1442 -2.4992 0.5483 0 7
1.3312 -4.0790 -2.4772 0.5531 0 7
1.4097 -4.0131 -2.4558 0.5580 0 7
1.4863 -3.9466 -2.4348 0.5628 0 7
1.5610 -3.8796 -2.4144 0.5675 0 7
1.6338 -3.8121 -2.3945 0.5723 0 7
1.7047 -3.7440 -2.3751 0.5769 0 7
1.7738 -3.6755 -2.3563 0.5815 0 7
1.8410 -3.6066 -2.3379 0.5861 0 7
1.9065 -3.5373 -2.3200 0.5906 0 7
1.9702 -3.4675 -2.3026 0.5951 0 7
2.0322 -3.3974 -2.2856 0.5995 0 7
2.0924 -3.3270 -2.2692 0.6039 0 7
2.1510 -3.2562 -2.2531 0.6082 0 7
2.2079 -3.1852 -2.2376 0.6124 0 7
2.2632 -3.1139 -2.2225 0.6166 0 7
2.3169 -3.0423 -2.2078 0.6206 0 7
2.3689 -2.9704 -2.1936 0.6247 0 7
2.4194 -2.8984 -2.1798 0.6286 0 7
2.4684 -2.8261 -2.1664 0.6325 0 7
2.5158 -2.7536 -2.1534 0.6363 0 7
2.5617 -2.6810 -2.1409 0.6401 0 7
2.6062 -2.6081 -2.1287 0.6437 0 7
2.6491 -2.5352 -2.1170 0.6473 0 7
2.6907 -2.4620 -2.1056 0.6508 0 7
2.7307 -2.3888 -2.0947 0.6542 0 7
2.7694 -2.3154 -2.0841 0.6575 0 7
2.8067 -2.2419 -2.0739 0.6607 0 7
2.8426 -2.1682 -2.0641 0.6639 0 7
2.8772 -2.0945 -2.0547 0.6669 0 7
2.9104 -2.0207 -2.0456 0.6699 0 7
2.9422 -1.9468 -2.0369 0.6727 0 7
2.9728 -1.8728 -2.0285 0.6755 0 6
3.0020 -1.7988 -2.0205 0.6782 0 6
3.0300 -1.7246 -2.0129 0.6807 0 7
3.0567 -1.6505 -2.0056 0.6832 0 6
3.0821 -1.5762 -1.9987 0.6856 0 6
3.1063 -1.5019 -1.9920 0.6879 0 7
3.1292 -1.4276 -1.9858 0.6900 0 7
3.1509 -1.3532 -1.9798 0.6921 0 7
3.1714 -1.2788 -1.9743 0.6941 0 7
3.1906 -1.2044 -1.9690 0.6959 0 7
3.2087 -1.1299 -1.9640 0.6977 0 7
3.2256 -1.0554 -1.9594 0.6993 0 7
3.2413 -0.9808 -1.9552 0.7009 0 7
3.2558 -0.9063 -1.9512 0.7023 0 7
3.2691 -0.8317 -1.9475 0.7036 0 7
3.2813 -0.7571 -1.9442 0.7048 0 7
3.2923 -0.6825 -1.9412 0.7059 0 7
3.3021 -0.6079 -1.9385 0.7069 0 7
3.3108 -0.5333 -1.9361 0.7077 0 7
3.3184 -0.4586 -1.9341 0.7085 0 7
3.3248 -0.3840 -1.9323 0.7091 0 7
3.3301 -0.3093 -1.9309 0.7097 0 7
3.3342 -0.2346 -1.9298 0.7101 0 7
3.3372 -0.1600 -1.9289 0.7104 0 7
3.3390 -0.0853 -1.9284 0.7106 0 7
3.3398 -0.0106 -1.9282 0.7106 0 7
3.3394 0.0641 -1.9283 0.7106 0 7
3.3378 0.1387 -1.9288 0.7104 0 7
3.3351 0.2134 -1.9295 0.7102 0 7
3.3313 0.2881 -1.9305 0.7098 0 7
3.3264 0.3628 -1.9319 0.7093 0 7
3.3203 0.4374 -1.9335 0.7087 0 7
3.3131 0.5121 -1.9355 0.7080 0 7
3.3047 0.5867 -1.9378 0.7071 0 7
3.2952 0.6613 -1.9404 0.7062 0 7
3.2845 0.7359 -1.9433 0.7051 0 7
3.2727 0.8105 -1.9466 0.7039 0 7
3.2597 0.8851 -1.9501 0.7027 0 7
3.2455 0.9597 -1.9540 0.7013 0 7
3.2302 1.0342 -1.9582 0.6998 0 7
3.2136 1.1087 -1.9627 0.6982 0 7
3.1959 1.1832 -1.9675 0.6964 0 7
3.1770 1.2577 -1.9727 0.6946 0 7
3.1568 1.3321 -1.9782 0.6927 0 7
3.1355 1.4065 -1.9841 0.6906 0 7
3.1129 1.4808 -1.9902 0.6885 0 7
3.0891 1.5551 -1.9967 0.6863 0 7
3.0640 1.6294 -2.0036 0.6839 0 7
3.0377 1.7036 -2.0108 0.6815 0 7
3.0101 1.7777 -2.0183 0.6789 0 6
2.9812 1.8518 -2.0262 0.6763 0 7
2.9510 1.9258 -2.0345 0.6735 0 7
2.9195 1.9997 -2.0431 0.6707 0 7
2.8867 2.0735 -2.0521 0.6678 0 7
2.8526 2.1473 -2.0614 0.6647 0 7
2.8170 2.2210 -2.0711 0.6616 0 7
2.7802 2.2945 -2.0812 0.6584 0 7
2.7419 2.3679 -2.0916 0.6551 0 7
2.7022 2.4412 -2.1025 0.6517 0 7
2.6611 2.5144 -2.1137 0.6483 0 7
2.6185 2.5874 -2.1254 0.6447 0 7
2.5745 2.6603 -2.1374 0.6411 0 7
2.5290 2.7330 -2.1498 0.6374 0 7
2.4820 2.8055 -2.1627 0.6336 0 7
2.4335 2.8779 -2.1759 0.6297 0 7
2.3835 2.9500 -2.1896 0.6258 0 7
2.2444 2.9086 -2.1211 0.7237 0 10
2.1939 2.9786 -2.1358 0.6998 0 10
2.0520 2.9205 -2.0607 0.7110 0 10
1.9384 2.8943 -2.0112 0.6735 0 10
1.8350 2.8770 -1.9702 0.7324 0 10
1.7514 2.8862 -1.9492 0.7425 0 10
1.6511 2.8633 -1.9083 0.7522 0 10
1.5753 2.8789 -1.8947 0.8516 0 10
1.5036 2.8999 -1.8859 0.8555 0 10
1.4324 2.9207 -1.8782 0.8591 0 10
1.3617 2.9411 -1.8712 0.8352 0 10
1.2914 2.9610 -1.8650 0.8379 0 10
1.2242 2.9875 -1.8640 0.7840 0 10
1.1629 3.0293 -1.8734 0.7543 0 10
1.1135 3.1064 -1.9052 0.5452 0 10
1.0731 3.2186 -1.9588 0.6673 0 10
1.0378 3.3615 -2.0312 0.2538 0 10
1.1918 4.1905 -2.5153 0.5448 0 7
1.1078 4.2545 -2.5383 0.5398 0 7
1.0217 4.3173 -2.5615 0.5491 0 8
0.9333 4.3783 -2.5846 0.5442 0 8
0.8428 4.4383 -2.6083 0.5393 0 8
0.7503 4.4975 -2.6325 0.5343 0 8
0.6556 4.5557 -2.6574 0.5293 0 8
0.5589 4.6130 -2.6828 0.5243 0 8
0.4601 4.6692 -2.7088 0.5192 0 8
0.3591 4.7244 -2.7355 0.5142 0 8
0.2545 4.7537 -2.7485 0.9399 0 8
0.1482 4.7593 -2.7491 0.9396 0 8
0.0418 4.7648 -2.7510 0.9390 0 8
-0.0648 4.7700 -2.7542 0.9379 0 8
-0.1717 4.7750 -2.7586 0.9364 0 8
-0.2791 4.7813 -2.7652 0.9422 0 8
-0.3893 4.8158 -2.7895 0.4639 0 8
-0.5024 4.8592 -2.8204 0.4588 0 8
-0.6177 4.9009 -2.8519 0.4538 0 8
-0.7354 4.9409 -2.8841 0.4487 0 8
-0.8553 4.9792 -2.9169 0.4437 0 8
-0.9774 5.0156 -2.9502 0.4386 0 8
-1.1019 5.0501 -2.9843 0.4336 0 8
-1.2286 5.0825 -3.0189 0.4287 0 8
-1.3576 5.1128 -3.0542 0.4237 0 8
-1.4889 5.1408 -3.0900 0.4188 0 8
-1.6224 5.1666 -3.1265 0.4139 0 8
-1.7581 5.1899 -3.1636 0.4090 0 8
-1.8960 5.2106 -3.2013 0.4042 0 8
-2.0361 5.2287 -3.2396 0.3995 0 8
-2.1784 5.2441 -3.2785 0.3947 0 8
-2.3227 5.2566 -3.3179 0.3900 0 8
-2.4690 5.2660 -3.3579 0.3854 0 8
-2.6174 5.2724 -3.3985 0.3808 0 8
-2.7677 5.2756 -3.4396 0.3762 0 8
-2.9198 5.2754 -3.4811 0.3717 0 8
-3.0737 5.2718 -3.5232 0.3673 0 8
-3.2293 5.2645 -3.5658 0.3629 0 8
-3.3866 5.2536 -3.6087 0.3586 0 8
-3.5453 5.2388 -3.6521 0.3543 0 8
-3.6723 5.1733 -3.6628 0.5805 0 19
-3.7286 5.0113 -3.6063 0.7245 0 19
-3.8989 5.0027 -3.6619 0.7135 0 19
-4.0746 4.9937 -3.7211 0.7022 0 19
-4.2561 4.9844 -3.7841 0.6905 0 19
-4.4440 4.9748 -3.8513 0.6784 0 19
-4.6388 4.9647 -3.9229 0.6660 0 19
-4.8410 4.9543 -3.9992 0.6533 0 19
-5.0198 4.9126 -4.0551 0.3191 0 8
-5.1858 4.8529 -4.1005 0.3162 0 8
-5.3749 4.8090 -4.1640 0.6204 0 8
-5.6170 4.8039 -4.2673 0.6053 0 8
-5.8711 4.7982 -4.3777 0.5901 0 8
-6.1384 4.7918 -4.4960 0.5746 0 8
-6.3447 4.7283 -4.5684 0.3079 0 8
-6.5180 4.6345 -4.6175 0.3046 0 8
-6.6899 4.5350 -4.6662 0.3014 0 8
-6.8600 4.4297 -4.7146 0.2983 0 8
-7.0269 4.3180 -4.7617 0.2878 0 7
-7.1872 4.1981 -4.8055 0.2851 0 7
-7.3443 4.0724 -4.8485 0.2826 0 7
-7.4979 3.9410 -4.8904 0.2802 0 7
-7.6476 3.8039 -4.9314 0.2779 0 7
-7.7930 3.6613 -4.9711 0.2756 0 7
-7.8337 -3.6196 -4.9822 0.2750 0 7
-7.6895 -3.7638 -4.9428 0.2772 0 7
-7.5410 -3.9025 -4.9022 0.2795 0 7
-7.3885 -4.0355 -4.8606 0.2819 0 7
-7.2324 -4.1628 -4.8179 0.2844 0 7
-7.0729 -4.2843 -4.7743 0.2870 0 7
-6.9105 -4.4001 -4.7299 0.2897 0 7
-6.7454 -4.5101 -4.6848 0.2925 0 7
-6.5780 -4.6143 -4.6390 0.2954 0 7
-6.4086 -4.7127 -4.5927 0.2984 0 7
-6.2374 -4.8053 -4.5459 0.3014 0 7
-6.0648 -4.8923 -4.4988 0.3046 0 7
-5.8911 -4.9736 -4.4513 0.3078 0 7
-5.7165 -5.0493 -4.4035 0.3112 0 7
-5.5412 -5.1196 -4.3556 0.3146 0 6
-5.3655 -5.1844 -4.3076 0.3181 0 6
-5.1897 -5.2439 -4.2596 0.3217 0 7
-5.0140 -5.2982 -4.2115 0.3254 0 7
-4.8386 -5.3474 -4.1636 0.3291 0 7
-4.6636 -5.3916 -4.1158 0.3329 0 7
-4.4893 -5.4309 -4.0681 0.3368 0 7
-4.3159 -5.4655 -4.0207 0.3408 0 7
-4.1435 -5.4954 -3.9736 0.3448 0 7
-3.9722 -5.5209 -3.9268 0.3490 0 7
-3.8023 -5.5420 -3.8803 0.3531 0 7
-3.6338 -5.5589 -3.8343 0.3574 0 7
-3.4668 -5.5716 -3.7887 0.3617 0 7
-3.3016 -5.5804 -3.7435 0.3660 0 7
-3.1380 -5.5853 -3.6988 0.3705 0 7
-2.9764 -5.5865 -3.6546 0.3749 0 7
-2.8167 -5.5842 -3.6110 0.3795 0 7
-2.6590 -5.5784 -3.5679 0.3841 0 7
-2.5034 -5.5693 -3.5253 0.3887 0 7
-2.3500 -5.5569 -3.4834 0.3934 0 7
-2.1988 -5.5416 -3.4421 0.3981 0 7
-2.0498 -5.5232 -3.4013 0.4029 0 7
-1.9031 -5.5020 -3.3612 0.4077 0 7
-1.7587 -5.4781 -3.3218 0.4125 0 7
-1.6166 -5.4516 -3.2830 0.4174 0 7
-1.4770 -5.4226 -3.2448 0.4223 0 7
-1.3397 -5.3912 -3.2073 0.4272 0 7
-1.2048 -5.3575 -3.1704 0.4322 0 7
-1.0723 -5.3216 -3.1342 0.4372 0 7
-0.9423 -5.2836 -3.0986 0.4422 0 7
-0.8146 -5.2436 -3.0637 0.4473 0 6
