ply
format ascii 1.0
element vertex 1435
property float32 x
property float32 y
property float32 z
property float32 CosAngle
property uint32 ObjIdx
property uint32 ObjTag
end_header
1.6295 8.5094 1.1282 0.9754 0 1
1.4333 8.5108 1.1239 0.9792 0 1
1.2587 8.6505 1.1383 0.9825 0 1
1.0620 8.6518 1.1351 0.9853 0 1
0.8652 8.6418 1.1310 0.2467 0 1
0.6661 8.5864 1.1215 0.9894 0 1
0.4734 8.5877 1.1200 0.9907 0 1
0.2811 8.5890 1.1191 0.9915 0 1
0.0890 8.5903 1.1187 0.9919 0 1
-0.1030 8.5907 1.1188 0.9945 0 1
-0.2952 8.5907 1.1193 0.9940 0 1
-0.4876 8.5907 1.1205 0.9930 0 1
-0.6806 8.5907 1.1222 0.9915 0 1
-0.8742 8.5907 1.1245 0.9895 0 1
-1.0687 8.5907 1.1273 0.9870 0 1
-1.2643 8.5907 1.1307 0.9840 0 1
-1.4612 8.5906 1.1347 0.9805 0 1
-1.6556 8.5702 1.1367 0.5678 0 1
-1.8362 8.4824 1.1302 0.5710 0 1
-2.0147 8.3948 1.1242 0.5740 0 1
-2.1912 8.3071 1.1188 0.5768 0 1
-2.3899 8.3032 1.1251 0.9513 0 1
-2.6451 8.4727 1.1558 0.8770 0 1
-2.8601 8.4893 1.1665 0.8690 0 1
-3.0434 8.4075 1.1644 0.9498 0 1
-3.2503 8.3882 1.1715 0.9441 0 1
-3.4635 8.3776 1.1805 0.9140 0 1
-3.6855 8.3791 1.1920 0.9052 0 1
-3.9500 8.4619 1.2161 0.8959 0 1
-4.2556 8.6091 1.2506 0.8252 0 1
-4.7785 8.2279 1.2390 0.5832 0 9
-4.9301 8.0681 1.2313 0.5220 0 9
-5.4210 5.5675 1.0119 0.6429 0 9
-5.4830 5.3850 1.0008 0.9441 0 9
-5.6650 5.3203 1.0120 0.6848 0 9
-7.0440 6.3251 1.2328 0.4067 0 9
-7.0894 6.0851 1.2166 0.4150 0 9
-7.1973 5.9035 1.2122 0.2540 0 9
-7.4156 5.8102 1.2268 0.2509 0 9
-6.9003 3.6431 1.0161 0.6650 0 9
-7.0357 3.5158 1.0242 0.4066 0 9
-7.2978 3.0541 1.0302 0.3371 0 9
-7.2863 2.8596 1.0193 0.6827 0 9
-7.4231 2.7234 1.0296 0.1875 0 9
-7.7125 2.6356 1.0613 0.3097 0 9
-7.7310 2.4503 1.0561 0.3511 0 9
-7.7888 2.2783 1.0568 0.4707 0 9
-8.4549 2.2693 1.1400 0.5712 0 9
-8.9298 2.1840 1.1971 0.4998 0 9
6.2040 5.3585 0.8803 0.8926 0 5
4.7521 8.6841 1.0630 0.8756 0 1
4.5038 8.6858 1.0506 0.8860 0 1
4.2610 8.6875 1.0390 0.8958 0 1
4.0234 8.6891 1.0282 0.9053 0 1
3.7906 8.6907 1.0181 0.9142 0 1
3.5622 8.6923 1.0087 0.9228 0 1
3.4144 8.8933 1.0229 0.9308 0 1
3.1888 8.8948 1.0147 0.9384 0 1
2.9666 8.8963 1.0070 0.9455 0 1
2.7477 8.8978 1.0000 0.9522 0 1
2.4749 8.6997 0.9713 0.9584 0 1
2.2663 8.7012 0.9655 0.9641 0 1
2.0601 8.7026 0.9603 0.9693 0 1
1.8144 8.5085 0.9342 0.9740 0 1
1.6167 8.5099 0.9301 0.9782 0 1
1.4530 8.7056 0.9477 0.1791 0 1
1.2712 8.8269 0.9576 0.9853 0 1
1.0705 8.8283 0.9549 0.9880 0 1
0.8660 8.7797 0.9474 0.9903 0 1
0.6666 8.7578 0.9431 0.0831 0 1
0.4645 8.6562 0.9309 0.9934 0 1
0.2707 8.6576 0.9301 0.9942 0 1
0.0765 8.5978 0.9233 0.2499 0 1
-0.1156 8.5921 0.9227 0.9943 0 1
-0.3079 8.5933 0.9234 0.9936 0 1
-0.5005 8.5946 0.9245 0.9924 0 1
-0.6936 8.5958 0.9260 0.9935 0 1
-0.8874 8.5958 0.9279 0.9914 0 1
-1.0821 8.5958 0.9303 0.9889 0 1
-1.2779 8.5958 0.9332 0.9859 0 1
-1.4750 8.5957 0.9365 0.9823 0 1
-1.6736 8.5957 0.9404 0.9783 0 1
-1.8739 8.5956 0.9447 0.9738 0 1
-2.0762 8.5956 0.9495 0.9688 0 1
-2.2807 8.5955 0.9549 0.9634 0 1
-2.4614 8.5048 0.9507 0.5612 0 1
-2.6399 8.4128 0.9468 0.5636 0 1
-2.8169 8.3209 0.9433 0.5656 0 1
-3.0211 8.3078 0.9493 0.9323 0 1
-3.2991 8.4774 0.9768 0.8580 0 1
-3.5265 8.4948 0.9877 0.8486 0 1
-3.7140 8.4104 0.9873 0.9262 0 1
-3.9314 8.3900 0.9949 0.9191 0 1
-4.1589 8.3826 1.0048 0.8879 0 1
-4.4386 8.4656 1.0264 0.8776 0 1
-4.6837 8.4672 1.0391 0.8670 0 1
-5.3619 5.4908 0.8241 0.6258 0 9
-5.4663 5.3529 0.8215 0.9509 0 9
-5.6799 5.3186 0.8356 0.6858 0 9
-8.4220 3.5101 0.9798 0.4334 0 9
-9.1144 3.5617 1.0508 0.3051 0 9
-8.3637 3.0547 0.9561 0.4919 0 9
-9.4048 3.1985 1.0667 0.3042 0 9
-8.6587 2.7304 0.9749 0.2648 0 9
-5.7590 -7.9924 1.0578 0.4719 0 9
-5.5717 -8.1087 1.0565 0.8401 0 9
-5.3390 -8.1548 1.0467 0.8477 0 9
-5.0304 -8.0715 1.0213 0.8088 0 9
-4.8319 -8.1534 1.0177 0.8116 0 9
-4.6329 -8.2318 1.0143 0.4410 0 9
-4.4877 -8.4082 1.0234 0.7069 0 9
-4.1838 -8.2793 0.9961 0.6402 0 9
-4.1782 -8.7487 1.0411 0.3361 0 9
4.0982 -9.0241 1.0643 0.6687 0 5
6.2163 5.3534 0.8809 0.8919 0 5
4.7686 8.6840 1.0638 0.8750 0 1
4.5198 8.6857 1.0514 0.8853 0 1
4.2767 8.6874 1.0398 0.8952 0 1
4.0388 8.6890 1.0289 0.9047 0 1
3.8056 8.6906 1.0188 0.9137 0 1
3.5770 8.6922 1.0093 0.9222 0 1
3.4293 8.8932 1.0235 0.9303 0 1
3.2034 8.8947 1.0152 0.9379 0 1
2.9810 8.8962 1.0075 0.9451 0 1
2.7619 8.8977 1.0004 0.9518 0 1
2.5315 8.8493 0.9884 0.9580 0 1
2.2799 8.7011 0.9659 0.9637 0 1
2.0736 8.7025 0.9606 0.9689 0 1
1.8274 8.5084 0.9345 0.9737 0 1
1.6296 8.5098 0.9304 0.9780 0 1
1.4545 8.6367 0.9405 0.1805 0 1
1.2843 8.8268 0.9578 0.9851 0 1
1.0836 8.8282 0.9551 0.9879 0 1
0.8813 8.8030 0.9500 0.0769 0 1
0.6812 8.7810 0.9457 0.9920 0 1
0.4772 8.6562 0.9309 0.9933 0 1
0.2833 8.6575 0.9302 0.9941 0 1
0.0892 8.6108 0.9247 0.2495 0 1
-0.1030 8.5920 0.9227 0.9943 0 1
-0.2953 8.5933 0.9233 0.9936 0 1
-0.4879 8.5946 0.9244 0.9925 0 1
-0.6810 8.5958 0.9259 0.9936 0 1
-0.8747 8.5958 0.9278 0.9916 0 1
-1.0693 8.5958 0.9301 0.9891 0 1
-1.2651 8.5958 0.9330 0.9861 0 1
-1.4620 8.5957 0.9363 0.9826 0 1
-1.6605 8.5957 0.9401 0.9786 0 1
-1.8608 8.5956 0.9444 0.9741 0 1
-2.0629 8.5956 0.9492 0.9692 0 1
-2.2672 8.5955 0.9546 0.9638 0 1
-2.4496 8.5108 0.9510 0.5611 0 1
-2.6283 8.4188 0.9471 0.5634 0 1
-2.8054 8.3269 0.9435 0.5655 0 1
-3.0073 8.3077 0.9487 0.9328 0 1
-3.2844 8.4763 0.9761 0.8586 0 1
-3.5115 8.4937 0.9869 0.8492 0 1
-3.6999 8.4117 0.9868 0.9267 0 1
-3.9171 8.3914 0.9944 0.9196 0 1
-4.1436 8.3825 1.0041 0.8885 0 1
-4.4228 8.4655 1.0256 0.8783 0 1
-4.6675 8.4671 1.0382 0.8677 0 1
-5.3625 5.5075 0.8254 0.6248 0 9
-5.4577 5.3601 0.8214 0.9510 0 9
-5.6634 5.3188 0.8343 0.6869 0 9
-8.4320 3.5287 0.9815 0.4326 0 9
-9.1205 3.5795 1.0521 0.3047 0 9
-8.3406 3.0601 0.9540 0.4930 0 9
-9.3820 3.2061 1.0646 0.3048 0 9
-8.6645 2.7462 0.9760 0.2645 0 9
6.2229 5.3749 0.6961 0.9401 0 5
4.7524 8.6845 0.8380 0.8775 0 1
4.5040 8.6862 0.8283 0.8878 0 1
4.2612 8.6879 0.8192 0.8977 0 1
4.0236 8.6895 0.8106 0.9072 0 1
3.7907 8.6911 0.8027 0.9162 0 1
3.5678 8.7060 0.7965 0.3802 0 1
3.4146 8.8937 0.8065 0.9328 0 1
3.1889 8.8952 0.7999 0.9404 0 1
2.9667 8.8967 0.7939 0.9475 0 1
2.7478 8.8982 0.7884 0.9542 0 1
2.4750 8.7001 0.7657 0.9604 0 1
2.2664 8.7015 0.7612 0.9661 0 1
2.0140 8.5075 0.7401 0.9713 0 1
1.8144 8.5089 0.7365 0.9761 0 1
1.6167 8.5102 0.7333 0.9803 0 1
1.4648 8.7760 0.7532 0.9841 0 1
1.2712 8.8273 0.7550 0.9874 0 1
1.0706 8.8287 0.7528 0.9901 0 1
0.8710 8.8300 0.7511 0.9924 0 1
0.6722 8.8314 0.7498 0.9942 0 1
0.4740 8.8327 0.7488 0.9955 0 1
0.2746 8.7841 0.7440 0.9963 0 1
0.0782 8.7854 0.7437 0.9966 0 1
-0.1165 8.6606 0.7332 0.9964 0 1
-0.3103 8.6619 0.7337 0.9957 0 1
-0.5045 8.6632 0.7346 0.9945 0 1
-0.6937 8.5963 0.7301 0.9928 0 1
-0.8876 8.5976 0.7317 0.9906 0 1
-1.0825 8.5990 0.7337 0.9879 0 1
-1.2786 8.6003 0.7360 0.9847 0 1
-1.4759 8.6008 0.7387 0.9839 0 1
-1.6746 8.6008 0.7418 0.9799 0 1
-1.8750 8.6008 0.7452 0.9754 0 1
-2.0774 8.6007 0.7490 0.9704 0 1
-2.2821 8.6007 0.7533 0.9649 0 1
-2.4891 8.6006 0.7579 0.9589 0 1
-2.6988 8.6005 0.7631 0.9525 0 1
-2.9115 8.6004 0.7686 0.9456 0 1
-3.1005 8.5262 0.7680 0.5489 0 1
-3.2806 8.4299 0.7657 0.5505 0 1
-3.4596 8.3335 0.7638 0.5519 0 1
-3.6708 8.3125 0.7692 0.9089 0 1
-3.9747 8.4825 0.7930 0.8350 0 1
-4.2176 8.5009 0.8033 0.8243 0 1
-4.4111 8.4131 0.8041 0.8984 0 1
-4.6419 8.3916 0.8118 0.8899 0 1
-4.8878 8.3879 0.8218 0.8577 0 1
-5.1933 8.4711 0.8411 0.8461 0 1
-5.3118 5.4395 0.6436 0.9596 0 9
-5.4413 5.3284 0.6447 0.9573 0 9
-6.8157 -6.8776 0.8197 0.8416 0 9
-6.5890 -6.9530 0.8109 0.6103 0 9
-6.4927 -7.1657 0.8186 0.7970 0 9
-6.3023 -7.2760 0.8149 0.5285 0 9
4.1019 -9.0323 0.8398 0.9986 0 5
6.2318 5.3667 0.6962 0.8916 0 5
4.7688 8.6844 0.8387 0.8768 0 1
4.5200 8.6861 0.8289 0.8872 0 1
4.2769 8.6878 0.8197 0.8971 0 1
4.0390 8.6894 0.8112 0.9066 0 1
3.8058 8.6910 0.8032 0.9156 0 1
3.5771 8.6926 0.7957 0.9242 0 1
3.4294 8.8936 0.8069 0.9323 0 1
3.2035 8.8951 0.8003 0.9399 0 1
2.9812 8.8966 0.7943 0.9471 0 1
2.7620 8.8981 0.7887 0.9538 0 1
2.4887 8.7000 0.7660 0.9600 0 1
2.2800 8.7015 0.7615 0.9657 0 1
2.0736 8.7029 0.7573 0.9710 0 1
1.8274 8.5088 0.7367 0.9758 0 1
1.6296 8.5102 0.7335 0.9801 0 1
1.4780 8.7759 0.7534 0.9839 0 1
1.2844 8.8272 0.7551 0.9872 0 1
1.0837 8.8286 0.7530 0.9900 0 1
0.8840 8.8299 0.7512 0.9923 0 1
0.6851 8.8313 0.7498 0.9941 0 1
0.4869 8.8326 0.7488 0.9954 0 1
0.2875 8.7840 0.7440 0.9963 0 1
0.0910 8.7853 0.7437 0.9966 0 1
-0.1039 8.6605 0.7332 0.9964 0 1
-0.2976 8.6618 0.7337 0.9957 0 1
-0.4917 8.6631 0.7345 0.9946 0 1
-0.6810 8.5962 0.7300 0.9929 0 1
-0.8749 8.5976 0.7316 0.9908 0 1
-1.0697 8.5989 0.7335 0.9881 0 1
-1.2657 8.6002 0.7359 0.9850 0 1
-1.4629 8.6008 0.7385 0.9841 0 1
-1.6615 8.6008 0.7415 0.9801 0 1
-1.8619 8.6008 0.7449 0.9757 0 1
-2.0641 8.6007 0.7487 0.9707 0 1
-2.2686 8.6007 0.7530 0.9653 0 1
-2.4755 8.6006 0.7576 0.9593 0 1
-2.6850 8.6005 0.7627 0.9529 0 1
-2.8975 8.6004 0.7683 0.9461 0 1
-3.0887 8.5325 0.7682 0.5488 0 1
-3.2689 8.4362 0.7659 0.5504 0 1
-3.4479 8.3398 0.7639 0.5518 0 1
-3.6562 8.3124 0.7687 0.9095 0 1
-3.9591 8.4813 0.7923 0.8357 0 1
-4.2015 8.4996 0.8026 0.8250 0 1
-4.3961 8.4144 0.8037 0.8989 0 1
-4.6266 8.3931 0.8113 0.8905 0 1
-4.8713 8.3878 0.8211 0.8584 0 1
-5.1762 8.4709 0.8404 0.8469 0 1
-5.3054 5.4488 0.6438 0.6329 0 9
-5.4327 5.3356 0.6446 0.9575 0 9
-5.7240 5.3756 0.6647 0.2099 0 9
6.2589 5.4060 0.5128 0.9363 0 5
4.7526 8.6849 0.6139 0.8789 0 1
4.5042 8.6866 0.6068 0.8893 0 1
4.2614 8.6883 0.6001 0.8992 0 1
4.0238 8.6899 0.5938 0.9086 0 1
3.7909 8.6915 0.5880 0.9176 0 1
3.6238 8.8426 0.5926 0.9262 0 1
3.4147 8.8941 0.5908 0.9343 0 1
3.1890 8.8956 0.5860 0.9419 0 1
2.9669 8.8971 0.5816 0.9491 0 1
2.7479 8.8986 0.5775 0.9557 0 1
2.4751 8.7005 0.5609 0.9619 0 1
2.2665 8.7019 0.5576 0.9677 0 1
2.0141 8.5079 0.5422 0.9729 0 1
1.8145 8.5092 0.5395 0.9776 0 1
1.6168 8.5106 0.5372 0.9819 0 1
1.4648 8.7764 0.5518 0.9857 0 1
1.2641 8.7777 0.5499 0.9889 0 1
1.0706 8.8290 0.5515 0.9917 0 1
0.8710 8.8304 0.5502 0.9940 0 1
0.6722 8.8317 0.5492 0.9958 0 1
0.4740 8.8331 0.5485 0.9971 0 1
0.2752 8.8027 0.5461 0.9979 0 1
0.0784 8.8041 0.5460 0.9982 0 1
-0.1185 8.8054 0.5461 0.9980 0 1
-0.3155 8.8067 0.5465 0.9973 0 1
-0.5147 8.8398 0.5491 0.9961 0 1
-0.7094 8.7911 0.5469 0.9944 0 1
-0.8947 8.6662 0.5402 0.9922 0 1
-1.0911 8.6675 0.5417 0.9895 0 1
-1.2870 8.6573 0.5427 0.2464 0 1
-1.4761 8.6020 0.5412 0.9827 0 1
-1.6751 8.6033 0.5435 0.9785 0 1
-1.8759 8.6047 0.5461 0.9738 0 1
-2.0787 8.6058 0.5490 0.9714 0 1
-2.2834 8.6058 0.5521 0.9659 0 1
-2.4906 8.6058 0.5555 0.9599 0 1
-2.7005 8.6058 0.5593 0.9535 0 1
-2.9133 8.6057 0.5634 0.9466 0 1
-3.1084 8.5479 0.5640 0.3193 0 1
-3.3251 8.5441 0.5685 0.9278 0 1
-3.5476 8.5456 0.5738 0.9193 0 1
-3.7722 8.5422 0.5791 0.5342 0 1
-3.9555 8.4415 0.5781 0.5351 0 1
-4.1381 8.3406 0.5774 0.5357 0 1
-4.3610 8.3175 0.5824 0.8809 0 1
-4.6957 8.4890 0.6016 0.8076 0 1
-4.9580 8.5084 0.6106 0.7956 0 1
-5.1587 8.4145 0.6120 0.8661 0 1
-5.3651 8.3276 0.6143 0.8355 0 1
-5.2928 5.6681 0.4809 0.2017 0 9
-5.2879 5.4150 0.4693 0.9656 0 9
-5.4306 5.3180 0.4713 0.7049 0 9
-6.9306 -6.9936 0.6106 0.4251 0 9
-6.7989 -7.1746 0.6129 0.7660 0 9
-6.6355 -7.3232 0.6128 0.7962 0 9
6.2639 5.3944 0.5126 0.9367 0 5
4.7690 8.6848 0.6144 0.8782 0 1
4.5202 8.6865 0.6072 0.8886 0 1
4.2771 8.6882 0.6005 0.8985 0 1
4.0391 8.6898 0.5942 0.9080 0 1
3.8060 8.6914 0.5884 0.9171 0 1
3.6248 8.8084 0.5907 0.3762 0 1
3.4296 8.8940 0.5911 0.9338 0 1
3.2037 8.8955 0.5863 0.9414 0 1
2.9813 8.8970 0.5819 0.9486 0 1
2.7621 8.8985 0.5778 0.9553 0 1
2.4889 8.7004 0.5612 0.9615 0 1
2.2801 8.7018 0.5578 0.9673 0 1
2.0272 8.5078 0.5423 0.9726 0 1
1.8275 8.5092 0.5397 0.9773 0 1
1.6297 8.5105 0.5373 0.9816 0 1
1.4780 8.7763 0.5519 0.9854 0 1
1.2772 8.7776 0.5500 0.9887 0 1
1.0837 8.8290 0.5516 0.9916 0 1
0.8840 8.8303 0.5503 0.9939 0 1
0.6852 8.8317 0.5493 0.9957 0 1
0.4869 8.8330 0.5486 0.9970 0 1
0.2881 8.8026 0.5461 0.9979 0 1
0.0912 8.8040 0.5460 0.9982 0 1
-0.1056 8.8053 0.5461 0.9980 0 1
-0.3026 8.8067 0.5464 0.9974 0 1
-0.5018 8.8397 0.5490 0.9962 0 1
-0.6964 8.7911 0.5468 0.9945 0 1
-0.8819 8.6661 0.5402 0.9924 0 1
-1.0783 8.6674 0.5416 0.9897 0 1
-1.2758 8.6688 0.5433 0.9866 0 1
-1.4631 8.6019 0.5411 0.9829 0 1
-1.6620 8.6032 0.5434 0.9788 0 1
-1.8627 8.6046 0.5459 0.9741 0 1
-2.0654 8.6059 0.5488 0.9717 0 1
-2.2700 8.6058 0.5519 0.9663 0 1
-2.4770 8.6058 0.5553 0.9603 0 1
-2.6867 8.6058 0.5590 0.9539 0 1
-2.8993 8.6057 0.5631 0.9470 0 1
-3.1088 8.5880 0.5664 0.3180 0 1
-3.3107 8.5440 0.5682 0.9283 0 1
-3.5329 8.5455 0.5734 0.9199 0 1
-3.7602 8.5488 0.5791 0.5341 0 1
-3.9435 8.4481 0.5781 0.5350 0 1
-4.1262 8.3472 0.5774 0.5357 0 1
-4.3454 8.3174 0.5819 0.8816 0 1
-4.6788 8.4878 0.6010 0.8084 0 1
-4.9406 8.5071 0.6100 0.7964 0 1
-5.1426 8.4160 0.6116 0.8667 0 1
-5.3535 8.3363 0.6144 0.5098 0 1
-5.2795 5.4222 0.4693 0.9657 0 9
-5.4150 5.3182 0.4706 0.7059 0 9
7.7146 5.5425 0.3746 0.3882 0 19
7.4820 5.6331 0.3693 0.9943 0 19
4.7528 8.6853 0.3904 0.8799 0 1
4.5044 8.6871 0.3858 0.8902 0 1
4.2616 8.6887 0.3816 0.9002 0 1
4.0239 8.6903 0.3776 0.9096 0 1
3.7911 8.6919 0.3739 0.9187 0 1
3.6239 8.8430 0.3768 0.9272 0 1
3.4149 8.8945 0.3757 0.9353 0 1
3.1892 8.8960 0.3726 0.9429 0 1
2.9670 8.8975 0.3698 0.9501 0 1
2.7480 8.8990 0.3672 0.9568 0 1
2.4752 8.7009 0.3567 0.9630 0 1
2.2666 8.7023 0.3546 0.9687 0 1
2.0141 8.5083 0.3448 0.9740 0 1
1.8146 8.5096 0.3431 0.9787 0 1
1.6173 8.5131 0.3417 0.1834 0 1
1.4732 8.8267 0.3529 0.9868 0 1
1.2713 8.8281 0.3517 0.9900 0 1
1.0707 8.8294 0.3507 0.9928 0 1
0.8710 8.8308 0.3499 0.9951 0 1
0.6684 8.7821 0.3473 0.9969 0 1
0.4713 8.7835 0.3468 0.9982 0 1
0.2762 8.8348 0.3485 0.9990 0 1
0.0784 8.8044 0.3472 0.9993 0 1
-0.1185 8.8058 0.3473 0.9991 0 1
-0.3155 8.8071 0.3475 0.9984 0 1
-0.5129 8.8084 0.3479 0.9972 0 1
-0.7109 8.8098 0.3485 0.9955 0 1
-0.9097 8.8111 0.3493 0.9933 0 1
-1.1094 8.8125 0.3502 0.9906 0 1
-1.3096 8.8091 0.3512 0.0767 0 1
-1.5024 8.7558 0.3503 0.0826 0 1
-1.6884 8.6719 0.3484 0.9796 0 1
-1.8909 8.6733 0.3500 0.9749 0 1
-2.0788 8.6064 0.3491 0.9697 0 1
-2.2840 8.6078 0.3512 0.9641 0 1
-2.4916 8.6092 0.3534 0.9580 0 1
-2.7020 8.6106 0.3559 0.9514 0 1
-2.9151 8.6110 0.3585 0.9471 0 1
-3.1066 8.5430 0.3584 0.9368 0 1
-3.3252 8.5445 0.3615 0.9288 0 1
-3.5478 8.5460 0.3649 0.9203 0 1
-3.8025 8.6109 0.3712 0.9147 0 1
-4.0349 8.6109 0.3750 0.9054 0 1
-4.2721 8.6108 0.3790 0.8957 0 1
-4.4851 8.5543 0.3809 0.5170 0 1
-4.6736 8.4489 0.3807 0.5172 0 1
-4.8618 8.3433 0.3808 0.5171 0 1
-5.1025 8.3229 0.3849 0.8484 0 1
-5.1988 5.5674 0.3004 0.6978 0 9
-5.2581 5.3845 0.2968 0.9530 0 9
-5.4166 5.3043 0.2989 0.6768 0 9
0.7511 -8.2344 0.3260 0.7131 0 19
6.0984 -0.1633 0.2406 0.0258 24 10
5.8610 -0.0258 0.2311 0.0269 24 10
6.0020 0.1077 0.2367 0.0262 24 10
7.7482 5.5494 0.3758 0.3870 0 19
7.4914 5.6231 0.3694 0.9941 0 19
6.3169 5.4400 0.3287 0.4293 0 5
4.7693 8.6852 0.3907 0.8792 0 1
4.5205 8.6869 0.3861 0.8896 0 1
4.2773 8.6886 0.3819 0.8995 0 1
4.0393 8.6902 0.3779 0.9090 0 1
3.8062 8.6918 0.3741 0.9181 0 1
3.6390 8.8429 0.3771 0.9267 0 1
3.4298 8.8944 0.3759 0.9348 0 1
3.2038 8.8959 0.3728 0.9425 0 1
2.9814 8.8974 0.3700 0.9496 0 1
2.7623 8.8989 0.3674 0.9564 0 1
2.4890 8.7008 0.3568 0.9626 0 1
2.2802 8.7022 0.3547 0.9684 0 1
2.0273 8.5082 0.3449 0.9736 0 1
1.8276 8.5095 0.3432 0.9784 0 1
1.6298 8.5109 0.3417 0.9827 0 1
1.4865 8.8266 0.3529 0.9865 0 1
1.2845 8.8280 0.3518 0.9898 0 1
1.0838 8.8293 0.3508 0.9927 0 1
0.8841 8.8307 0.3499 0.9950 0 1
0.6813 8.7821 0.3473 0.9968 0 1
0.4842 8.7834 0.3469 0.9981 0 1
0.2891 8.8347 0.3485 0.9990 0 1
0.0912 8.8043 0.3472 0.9993 0 1
-0.1056 8.8057 0.3472 0.9991 0 1
-0.3026 8.8070 0.3475 0.9985 0 1
-0.5000 8.8083 0.3479 0.9973 0 1
-0.6979 8.8097 0.3485 0.9956 0 1
-0.8966 8.8110 0.3492 0.9934 0 1
-1.0963 8.8124 0.3502 0.9908 0 1
-1.3018 8.8455 0.3525 0.9876 0 1
-1.4962 8.7969 0.3518 0.9840 0 1
-1.6753 8.6719 0.3483 0.9798 0 1
-1.8776 8.6732 0.3499 0.9752 0 1
-2.0655 8.6063 0.3490 0.9701 0 1
-2.2705 8.6077 0.3510 0.9645 0 1
-2.4779 8.6091 0.3532 0.9584 0 1
-2.6882 8.6106 0.3557 0.9518 0 1
-2.9011 8.6110 0.3583 0.9475 0 1
-3.0924 8.5429 0.3582 0.9373 0 1
-3.3108 8.5444 0.3613 0.9293 0 1
-3.5331 8.5459 0.3646 0.9209 0 1
-3.7875 8.6109 0.3709 0.9153 0 1
-4.0195 8.6109 0.3747 0.9060 0 1
-4.2565 8.6108 0.3788 0.8964 0 1
-4.4728 8.5612 0.3809 0.5170 0 1
-4.6613 8.4558 0.3807 0.5172 0 1
-4.8495 8.3502 0.3808 0.5172 0 1
-5.0857 8.3228 0.3846 0.8492 0 1
-5.1977 5.5827 0.3008 0.6968 0 9
-5.2498 5.3917 0.2967 0.9531 0 9
-5.4005 5.3039 0.2985 0.6778 0 9
7.6492 5.4955 0.1591 0.8005 0 19
7.5141 5.6572 0.1589 0.9089 0 19
5.1350 8.4622 0.1672 0.8583 0 1
4.8806 8.4640 0.1650 0.8696 0 1
4.7474 8.6755 0.1671 0.1103 0 1
4.5046 8.6874 0.1653 0.8908 0 1
4.2618 8.6891 0.1635 0.9007 0 1
4.0241 8.6907 0.1618 0.9102 0 1
3.7913 8.6923 0.1602 0.9192 0 1
3.6085 8.8053 0.1607 0.0837 0 1
3.3959 8.8450 0.1600 0.9359 0 1
3.1893 8.8964 0.1596 0.9435 0 1
2.9671 8.8979 0.1584 0.9507 0 1
2.6865 8.6998 0.1538 0.9574 0 1
2.4753 8.7012 0.1528 0.9636 0 1
2.2667 8.7027 0.1519 0.9693 0 1
2.0142 8.5086 0.1477 0.9745 0 1
1.8147 8.5100 0.1470 0.9793 0 1
1.6672 8.7757 0.1509 0.9836 0 1
1.4733 8.8271 0.1512 0.9873 0 1
1.2714 8.8284 0.1507 0.9906 0 1
1.0707 8.8298 0.1502 0.9934 0 1
0.8711 8.8311 0.1499 0.9957 0 1
0.6722 8.8325 0.1496 0.9975 0 1
0.4714 8.7839 0.1486 0.9988 0 1
0.2762 8.8352 0.1493 0.9996 0 1
0.0786 8.8365 0.1493 0.9999 0 1
-0.1183 8.7879 0.1485 0.9997 0 1
-0.3149 8.7892 0.1486 0.9990 0 1
-0.5148 8.8406 0.1496 0.9978 0 1
-0.7109 8.8101 0.1493 0.9961 0 1
-0.9097 8.8115 0.1496 0.9939 0 1
-1.1094 8.8129 0.1500 0.9912 0 1
-1.3104 8.8142 0.1505 0.9880 0 1
-1.5127 8.8156 0.1511 0.9843 0 1
-1.7167 8.8170 0.1517 0.9801 0 1
-1.9294 8.8502 0.1530 0.9755 0 1
-2.1259 8.8015 0.1529 0.9703 0 1
-2.3022 8.6765 0.1516 0.9647 0 1
-2.5115 8.6779 0.1526 0.9586 0 1
-2.7171 8.6587 0.1533 0.2381 0 1
-2.9156 8.6125 0.1536 0.9449 0 1
-3.1067 8.5434 0.1536 0.9373 0 1
-3.3254 8.5449 0.1549 0.9293 0 1
-3.5770 8.6163 0.1576 0.9235 0 1
-3.8049 8.6164 0.1591 0.9147 0 1
-4.0375 8.6164 0.1607 0.9054 0 1
-4.2749 8.6164 0.1625 0.8957 0 1
-4.5177 8.6164 0.1643 0.8855 0 1
-4.7662 8.6164 0.1663 0.8749 0 1
-5.0210 8.6164 0.1685 0.8639 0 1
-5.1541 5.5196 0.1276 0.7042 0 9
-5.2261 5.3517 0.1264 0.9611 0 9
-5.3953 5.2834 0.1276 0.6799 0 9
0.0127 -8.2242 0.1389 0.9998 0 19
0.5849 -8.5112 0.1441 0.9970 0 19
5.6099 -0.5279 0.0952 0.0958 24 10
5.3997 -0.3866 0.0914 0.2584 24 10
5.3459 -0.2628 0.0904 0.2712 24 10
5.2990 -0.1418 0.0895 0.2751 24 10
5.2545 -0.0232 0.0888 0.2442 24 10
5.2813 0.0948 0.0892 0.2761 24 10
5.3264 0.2148 0.0900 0.2736 24 10
5.3804 0.3376 0.0911 0.2594 24 10
5.4297 0.4627 0.0921 0.2567 24 10
7.6654 5.4901 0.1593 0.7996 0 19
7.5178 5.6428 0.1588 0.9094 0 19
5.1519 8.4621 0.1673 0.8576 0 1
4.8970 8.4638 0.1652 0.8688 0 1
4.7456 8.6421 0.1665 0.1106 0 1
4.5207 8.6873 0.1654 0.8901 0 1
4.2775 8.6890 0.1636 0.9001 0 1
4.0395 8.6906 0.1619 0.9096 0 1
3.8063 8.6922 0.1603 0.9186 0 1
3.6060 8.7627 0.1601 0.0840 0 1
3.4107 8.8449 0.1601 0.9354 0 1
3.2040 8.8963 0.1597 0.9430 0 1
2.9816 8.8978 0.1585 0.9502 0 1
2.7004 8.6997 0.1539 0.9569 0 1
2.4891 8.7011 0.1529 0.9632 0 1
2.2803 8.7026 0.1520 0.9689 0 1
2.0274 8.5085 0.1478 0.9742 0 1
1.8277 8.5099 0.1470 0.9790 0 1
1.6712 8.7273 0.1501 0.1789 0 1
1.4866 8.8270 0.1512 0.9871 0 1
1.2846 8.8283 0.1507 0.9904 0 1
1.0838 8.8297 0.1503 0.9932 0 1
0.8841 8.8311 0.1499 0.9956 0 1
0.6852 8.8324 0.1496 0.9974 0 1
0.4842 8.7838 0.1486 0.9987 0 1
0.2892 8.8351 0.1493 0.9996 0 1
0.0916 8.8364 0.1493 0.9999 0 1
-0.1054 8.7878 0.1485 0.9997 0 1
-0.3020 8.7891 0.1486 0.9990 0 1
-0.5018 8.8405 0.1496 0.9979 0 1
-0.6980 8.8101 0.1493 0.9962 0 1
-0.8967 8.8114 0.1496 0.9940 0 1
-1.0963 8.8128 0.1500 0.9914 0 1
-1.2972 8.8141 0.1505 0.9882 0 1
-1.4994 8.8155 0.1510 0.9846 0 1
-1.7033 8.8169 0.1517 0.9804 0 1
-1.9158 8.8501 0.1530 0.9758 0 1
-2.1123 8.8014 0.1529 0.9707 0 1
-2.2886 8.6764 0.1516 0.9651 0 1
-2.4977 8.6778 0.1525 0.9590 0 1
-2.7078 8.6735 0.1535 0.2378 0 1
-2.9015 8.6124 0.1535 0.9454 0 1
-3.0926 8.5433 0.1535 0.9379 0 1
-3.3110 8.5447 0.1548 0.9299 0 1
-3.5622 8.6163 0.1575 0.9240 0 1
-3.7899 8.6163 0.1590 0.9153 0 1
-4.0221 8.6164 0.1606 0.9060 0 1
-4.2592 8.6164 0.1624 0.8963 0 1
-4.5016 8.6164 0.1642 0.8862 0 1
-4.7498 8.6164 0.1662 0.8756 0 1
-5.0041 8.6164 0.1683 0.8646 0 1
-5.1530 5.5346 0.1277 0.7033 0 9
-5.2179 5.3590 0.1263 0.9611 0 9
-5.3792 5.2830 0.1274 0.6753 0 9
7.6363 5.4862 -0.0529 0.9911 0 19
7.5825 5.7088 -0.0534 0.5731 0 19
6.4819 5.3504 -0.0473 0.3115 0 5
5.1353 8.4626 -0.0557 0.8584 0 1
4.8808 8.4644 -0.0550 0.8696 0 1
4.6328 8.4660 -0.0543 0.8805 0 1
4.3906 8.4677 -0.0537 0.8908 0 1
4.1540 8.4693 -0.0531 0.9008 0 1
3.9430 8.5154 -0.0528 0.1162 0 1
3.7914 8.6927 -0.0534 0.9193 0 1
3.5630 8.6942 -0.0529 0.9278 0 1
3.3386 8.6958 -0.0524 0.9359 0 1
3.1179 8.6973 -0.0520 0.9436 0 1
2.9007 8.6987 -0.0516 0.9507 0 1
2.6866 8.7002 -0.0513 0.9574 0 1
2.4754 8.7016 -0.0509 0.9636 0 1
2.2159 8.5076 -0.0495 0.9694 0 1
2.0143 8.5090 -0.0492 0.9746 0 1
1.8148 8.5103 -0.0490 0.9794 0 1
1.6749 8.8162 -0.0505 0.1716 0 1
1.4734 8.8274 -0.0504 0.9874 0 1
1.2715 8.8288 -0.0502 0.9907 0 1
1.0708 8.8302 -0.0501 0.9935 0 1
0.8711 8.8315 -0.0500 0.9958 0 1
0.6723 8.8329 -0.0499 0.9976 0 1
0.4714 8.7842 -0.0495 0.9989 0 1
0.2762 8.8355 -0.0498 0.9997 0 1
0.0786 8.8369 -0.0498 1.0000 0 1
-0.1189 8.8382 -0.0498 0.9998 0 1
-0.3167 8.8396 -0.0498 0.9991 0 1
-0.5148 8.8409 -0.0499 0.9979 0 1
-0.7135 8.8423 -0.0499 0.9962 0 1
-0.9078 8.7936 -0.0498 0.9940 0 1
-1.1135 8.8450 -0.0502 0.9913 0 1
-1.3104 8.8146 -0.0502 0.9881 0 1
-1.5128 8.8160 -0.0504 0.9844 0 1
-1.7132 8.7991 -0.0505 0.9802 0 1
-1.9295 8.8505 -0.0510 0.9756 0 1
-2.1381 8.8519 -0.0513 0.9704 0 1
-2.3491 8.8534 -0.0516 0.9648 0 1
-2.5627 8.8548 -0.0519 0.9586 0 1
-2.7791 8.8563 -0.0523 0.9520 0 1
-2.9392 8.6820 -0.0516 0.3175 0 1
-3.1069 8.5437 -0.0512 0.9374 0 1
-3.3255 8.5452 -0.0516 0.9294 0 1
-3.5774 8.6173 -0.0525 0.9209 0 1
-3.8061 8.6189 -0.0530 0.9120 0 1
-4.0394 8.6205 -0.0536 0.9026 0 1
-4.2777 8.6219 -0.0542 0.8952 0 1
-4.5206 8.6220 -0.0548 0.8851 0 1
-4.7694 8.6221 -0.0555 0.8745 0 1
-5.0243 8.6222 -0.0562 0.8634 0 1
-5.1102 5.4726 -0.0422 0.7104 0 9
-5.1948 5.3197 -0.0419 0.9670 0 9
-5.3740 5.2626 -0.0424 0.6770 0 9
-0.7248 -8.2273 -0.0465 0.6923 0 19
-0.5995 -9.1375 -0.0516 0.0118 0 19
-0.1770 -8.5057 -0.0479 0.9999 0 19
0.0132 -8.5070 -0.0479 1.0000 0 19
0.2027 -8.4810 -0.0478 0.9995 0 19
0.5980 -8.7028 -0.0491 0.0235 0 19
6.4009 -0.8925 -0.0364 0.9268 24 10
6.0509 -0.7062 -0.0343 0.0721 24 10
5.1093 -0.4808 -0.0289 0.4568 24 10
5.0792 -0.3636 -0.0287 0.4493 24 10
5.0538 -0.2484 -0.0285 0.4506 24 10
5.0270 -0.1346 -0.0283 0.4489 24 10
5.0031 -0.0221 -0.0282 0.4512 24 10
5.0176 0.0901 -0.0283 0.4498 24 10
5.0428 0.2033 -0.0284 0.4518 24 10
5.0692 0.3180 -0.0286 0.4504 24 10
5.0946 0.4342 -0.0288 0.4474 24 10
5.4744 0.5900 -0.0310 0.0981 24 10
6.4193 0.8374 -0.0364 0.9252 24 10
6.3726 0.9767 -0.0363 0.9133 24 10
7.6458 5.4761 -0.0529 0.9909 0 19
7.5762 5.6867 -0.0533 0.5742 0 19
6.5186 5.3647 -0.0475 0.3101 0 5
5.1521 8.4625 -0.0558 0.8576 0 1
4.8973 8.4643 -0.0551 0.8689 0 1
4.6488 8.4659 -0.0544 0.8798 0 1
4.4063 8.4676 -0.0537 0.8902 0 1
4.1693 8.4692 -0.0531 0.9001 0 1
3.9435 8.4841 -0.0527 0.1166 0 1
3.8065 8.6926 -0.0534 0.9187 0 1
3.5778 8.6941 -0.0529 0.9273 0 1
3.3531 8.6957 -0.0525 0.9354 0 1
3.1322 8.6972 -0.0520 0.9431 0 1
2.9148 8.6986 -0.0517 0.9503 0 1
2.7006 8.7001 -0.0513 0.9570 0 1
2.4892 8.7015 -0.0510 0.9633 0 1
2.2292 8.5075 -0.0495 0.9690 0 1
2.0274 8.5089 -0.0492 0.9743 0 1
1.8277 8.5102 -0.0490 0.9791 0 1
1.6805 8.7760 -0.0503 0.9834 0 1
1.4866 8.8273 -0.0504 0.9872 0 1
1.2846 8.8287 -0.0502 0.9905 0 1
1.0839 8.8301 -0.0501 0.9933 0 1
0.8841 8.8314 -0.0500 0.9957 0 1
0.6853 8.8328 -0.0499 0.9975 0 1
0.4842 8.7841 -0.0495 0.9988 0 1
0.2892 8.8355 -0.0498 0.9996 0 1
0.0916 8.8368 -0.0498 1.0000 0 1
-0.1060 8.8381 -0.0498 0.9998 0 1
-0.3037 8.8395 -0.0498 0.9991 0 1
-0.5018 8.8408 -0.0499 0.9980 0 1
-0.7005 8.8422 -0.0499 0.9963 0 1
-0.8948 8.7935 -0.0498 0.9941 0 1
-1.1003 8.8449 -0.0502 0.9915 0 1
-1.3019 8.8463 -0.0503 0.9883 0 1
-1.4995 8.8159 -0.0503 0.9846 0 1
-1.6998 8.7990 -0.0505 0.9805 0 1
-1.9159 8.8504 -0.0510 0.9759 0 1
-2.1244 8.8518 -0.0513 0.9708 0 1
-2.3352 8.8533 -0.0516 0.9651 0 1
-2.5486 8.8547 -0.0519 0.9591 0 1
-2.7649 8.8562 -0.0522 0.9525 0 1
-2.9388 8.7230 -0.0518 0.3161 0 1
-3.0927 8.5436 -0.0512 0.9379 0 1
-3.3111 8.5451 -0.0516 0.9299 0 1
-3.5626 8.6172 -0.0525 0.9215 0 1
-3.7910 8.6188 -0.0530 0.9126 0 1
-4.0240 8.6204 -0.0536 0.9032 0 1
-4.2620 8.6219 -0.0541 0.8959 0 1
-4.5046 8.6220 -0.0548 0.8857 0 1
-4.7529 8.6221 -0.0554 0.8752 0 1
-5.0075 8.6222 -0.0561 0.8642 0 1
-5.1090 5.4874 -0.0422 0.7094 0 9
-5.1867 5.3269 -0.0419 0.9671 0 9
-5.3579 5.2622 -0.0423 0.6781 0 9
9.3797 3.0048 -0.2773 0.2781 0 7
9.3729 3.2354 -0.2792 0.2763 0 7
9.3655 3.4690 -0.2812 0.2743 0 7
7.5756 5.7036 -0.2670 0.7586 0 19
6.4358 5.3123 -0.2350 0.2304 0 5
5.1355 8.4631 -0.2787 0.8580 0 1
4.8811 8.4648 -0.2751 0.8693 0 1
4.6330 8.4665 -0.2718 0.8801 0 1
4.3909 8.4681 -0.2686 0.8905 0 1
4.1542 8.4697 -0.2656 0.9004 0 1
3.9225 8.4713 -0.2629 0.9099 0 1
3.6955 8.4728 -0.2603 0.9189 0 1
3.4728 8.4743 -0.2579 0.9274 0 1
3.2541 8.4758 -0.2556 0.9355 0 1
3.1181 8.6976 -0.2602 0.9432 0 1
2.9008 8.6991 -0.2582 0.9503 0 1
2.6868 8.7006 -0.2564 0.9570 0 1
2.4755 8.7020 -0.2548 0.9632 0 1
2.2160 8.5080 -0.2476 0.9690 0 1
2.0144 8.5094 -0.2462 0.9742 0 1
1.8148 8.5107 -0.2450 0.9790 0 1
1.6711 8.7965 -0.2521 0.9832 0 1
1.4734 8.8278 -0.2520 0.9870 0 1
1.2715 8.8292 -0.2512 0.9903 0 1
1.0708 8.8305 -0.2505 0.9931 0 1
0.8712 8.8319 -0.2499 0.9954 0 1
0.6723 8.8332 -0.2494 0.9972 0 1
0.4741 8.8346 -0.2491 0.9985 0 1
0.2763 8.8359 -0.2489 0.9993 0 1
0.0787 8.8373 -0.2488 0.9995 0 1
-0.1189 8.8386 -0.2489 0.9993 0 1
-0.3167 8.8399 -0.2491 0.9986 0 1
-0.5148 8.8413 -0.2494 0.9974 0 1
-0.7135 8.8426 -0.2498 0.9957 0 1
-0.9130 8.8440 -0.2504 0.9935 0 1
-1.1135 8.8454 -0.2510 0.9909 0 1
-1.3152 8.8467 -0.2518 0.9877 0 1
-1.5097 8.7981 -0.2514 0.9840 0 1
-1.7132 8.7994 -0.2524 0.9798 0 1
-1.9296 8.8509 -0.2551 0.9751 0 1
-2.1382 8.8523 -0.2564 0.9700 0 1
-2.3492 8.8538 -0.2579 0.9644 0 1
-2.5628 8.8552 -0.2596 0.9582 0 1
-2.7792 8.8567 -0.2614 0.9516 0 1
-2.8920 8.5427 -0.2540 0.9446 0 1
-3.1070 8.5441 -0.2560 0.9370 0 1
-3.3257 8.5456 -0.2582 0.9290 0 1
-3.6585 8.8127 -0.2687 0.9205 0 1
-3.8364 8.6877 -0.2674 0.9116 0 1
-4.0716 8.6893 -0.2702 0.9022 0 1
-4.2879 8.6425 -0.2717 0.2239 0 1
-4.5218 8.6242 -0.2742 0.8821 0 1
-4.7714 8.6259 -0.2776 0.8713 0 1
-5.0275 8.6276 -0.2812 0.8602 0 1
-5.0692 5.4287 -0.2091 0.7377 0 9
-5.1651 5.2893 -0.2082 0.9886 0 9
-5.3529 5.2418 -0.2110 0.6794 0 9
-1.2844 -8.2235 -0.2344 0.7087 0 19
-0.9378 -8.4729 -0.2400 0.9943 0 19
-0.7490 -8.5015 -0.2403 0.9964 0 19
-0.5561 -8.4755 -0.2392 0.9979 0 19
-0.4233 -9.8019 -0.2763 0.9990 0 19
0.0152 -9.8272 -0.2767 0.9996 0 19
0.2350 -9.8287 -0.2768 0.9992 0 19
0.4550 -9.8302 -0.2771 0.9982 0 19
0.6722 -9.7820 -0.2761 0.9968 0 19
4.4166 -8.6733 -0.2741 0.6185 0 9
4.6704 -8.6858 -0.2777 0.8945 0 9
4.8968 -8.6382 -0.2796 0.2511 0 9
5.0808 -8.5133 -0.2792 0.5193 0 9
5.4862 -8.3232 -0.2807 0.6223 0 9
9.3705 -3.3119 -0.2798 0.2756 0 7
9.3776 -3.0803 -0.2779 0.2775 0 7
9.3840 -2.8517 -0.2762 0.2793 0 7
9.3900 -2.6257 -0.2745 0.2810 0 7
9.3954 -2.4021 -0.2731 0.2825 0 7
9.4003 -2.1808 -0.2717 0.2839 0 7
9.4047 -1.9613 -0.2705 0.2852 0 7
9.4086 -1.7437 -0.2694 0.2863 0 7
9.4121 -1.5275 -0.2685 0.2873 0 7
9.4151 -1.3127 -0.2677 0.2882 0 7
5.2117 -0.6082 -0.1477 0.1180 24 10
4.8993 -0.4610 -0.1386 0.4762 24 10
4.8640 -0.3482 -0.1373 0.4806 24 10
4.8397 -0.2379 -0.1364 0.4704 24 10
4.8143 -0.1289 -0.1356 0.4733 24 10
4.7904 -0.0211 -0.1349 0.4710 24 10
4.8044 0.0862 -0.1353 0.4744 24 10
4.8297 0.1948 -0.1361 0.4716 24 10
4.8541 0.3046 -0.1369 0.4702 24 10
4.8853 0.4163 -0.1381 0.4780 24 10
5.0047 0.5394 -0.1417 0.2439 24 10
5.7472 0.7498 -0.1632 0.0931 24 10
9.4133 1.4427 -0.2682 0.2877 0 7
9.4101 1.6583 -0.2690 0.2867 0 7
9.4063 1.8753 -0.2701 0.2856 0 7
9.4021 2.0940 -0.2712 0.2844 0 7
9.3974 2.3146 -0.2725 0.2831 0 7
9.3921 2.5373 -0.2739 0.2816 0 7
9.3864 2.7623 -0.2755 0.2800 0 7
9.3802 2.9899 -0.2772 0.2783 0 7
9.3734 3.2202 -0.2791 0.2764 0 7
9.3660 3.4536 -0.2811 0.2744 0 7
7.5775 5.6876 -0.2668 0.9041 0 19
6.4367 5.2972 -0.2347 0.2306 0 5
6.4223 5.5308 -0.2387 0.2269 0 5
5.1524 8.4629 -0.2790 0.8573 0 1
4.8975 8.4647 -0.2754 0.8685 0 1
4.6491 8.4663 -0.2720 0.8794 0 1
4.4065 8.4680 -0.2688 0.8898 0 1
4.1695 8.4696 -0.2658 0.8997 0 1
3.9375 8.4711 -0.2630 0.9093 0 1
3.7102 8.4727 -0.2604 0.9183 0 1
3.4873 8.4742 -0.2580 0.9269 0 1
3.2683 8.4757 -0.2558 0.9350 0 1
3.1324 8.6976 -0.2603 0.9427 0 1
2.9150 8.6990 -0.2583 0.9499 0 1
2.7007 8.7005 -0.2565 0.9566 0 1
2.4893 8.7019 -0.2549 0.9628 0 1
2.2293 8.5079 -0.2477 0.9686 0 1
2.0275 8.5093 -0.2463 0.9739 0 1
1.8278 8.5106 -0.2451 0.9787 0 1
1.6902 8.8263 -0.2530 0.9830 0 1
1.4867 8.8277 -0.2521 0.9868 0 1
1.2847 8.8291 -0.2512 0.9901 0 1
1.0839 8.8304 -0.2505 0.9929 0 1
0.8842 8.8318 -0.2499 0.9952 0 1
0.6853 8.8331 -0.2495 0.9971 0 1
0.4870 8.8345 -0.2491 0.9984 0 1
0.2892 8.8358 -0.2489 0.9992 0 1
0.0916 8.8372 -0.2488 0.9995 0 1
-0.1060 8.8385 -0.2489 0.9994 0 1
-0.3038 8.8399 -0.2491 0.9987 0 1
-0.5018 8.8412 -0.2494 0.9975 0 1
-0.7005 8.8426 -0.2498 0.9959 0 1
-0.9000 8.8439 -0.2503 0.9937 0 1
-1.1004 8.8453 -0.2510 0.9910 0 1
-1.3020 8.8466 -0.2518 0.9879 0 1
-1.4964 8.7980 -0.2513 0.9842 0 1
-1.6999 8.7993 -0.2524 0.9801 0 1
-1.9160 8.8508 -0.2550 0.9755 0 1
-2.1245 8.8522 -0.2563 0.9703 0 1
-2.3353 8.8537 -0.2578 0.9647 0 1
-2.5487 8.8551 -0.2595 0.9587 0 1
-2.7650 8.8566 -0.2613 0.9521 0 1
-2.8846 8.5621 -0.2544 0.3219 0 1
-3.0929 8.5440 -0.2559 0.9375 0 1
-3.3112 8.5455 -0.2581 0.9295 0 1
-3.6433 8.8126 -0.2685 0.9211 0 1
-3.8212 8.6876 -0.2672 0.9122 0 1
-4.0561 8.6892 -0.2700 0.9028 0 1
-4.2799 8.6581 -0.2720 0.2236 0 1
-4.5056 8.6241 -0.2740 0.8828 0 1
-4.7549 8.6258 -0.2773 0.8721 0 1
-5.0105 8.6275 -0.2809 0.8609 0 1
-5.0678 5.4432 -0.2094 0.7367 0 9
-5.1572 5.2966 -0.2082 0.9886 0 9
-5.3369 5.2415 -0.2106 0.6805 0 9
8.6995 2.7869 -0.4633 0.2996 0 7
8.6889 2.9993 -0.4662 0.2978 0 7
8.6775 3.2141 -0.4693 0.2958 0 7
8.6651 3.4317 -0.4727 0.2937 0 7
8.6519 3.6523 -0.4763 0.2914 0 7
8.6378 3.8760 -0.4801 0.2891 0 7
8.6226 4.1032 -0.4843 0.2866 0 7
8.6022 4.3319 -0.4884 0.2917 0 8
8.5729 4.5601 -0.4924 0.2893 0 8
8.3983 4.7111 -0.4884 0.5358 0 8
8.0760 4.7707 -0.4757 0.2756 0 8
8.0565 5.0054 -0.4810 0.2725 0 8
8.0359 5.2451 -0.4867 0.2694 0 8
8.0140 5.4902 -0.4926 0.2661 0 8
7.9908 5.7408 -0.4990 0.2627 0 8
7.9662 5.9977 -0.5057 0.2592 0 8
6.6904 5.2755 -0.4321 0.6339 0 5
6.4378 5.3140 -0.4233 0.7352 0 5
5.1358 8.4635 -0.5021 0.8572 0 1
4.8813 8.4652 -0.4956 0.8685 0 1
4.6332 8.4669 -0.4895 0.8793 0 1
4.3911 8.4685 -0.4838 0.8896 0 1
4.1543 8.4701 -0.4784 0.8995 0 1
3.9227 8.4716 -0.4735 0.9090 0 1
3.6957 8.4732 -0.4688 0.9180 0 1
3.4730 8.4747 -0.4645 0.9266 0 1
3.2543 8.4761 -0.4605 0.9347 0 1
3.0392 8.4776 -0.4567 0.9423 0 1
2.8275 8.4790 -0.4533 0.9495 0 1
2.6188 8.4804 -0.4501 0.9561 0 1
2.4648 8.6644 -0.4568 0.1209 0 1
2.2161 8.5084 -0.4459 0.9681 0 1
2.0145 8.5097 -0.4435 0.9733 0 1
1.8331 8.5966 -0.4458 0.1807 0 1
1.6712 8.7969 -0.4541 0.9823 0 1
1.4685 8.7983 -0.4524 0.9861 0 1
1.2673 8.7997 -0.4509 0.9894 0 1
1.0672 8.8010 -0.4496 0.9922 0 1
0.8682 8.8024 -0.4486 0.9944 0 1
0.6685 8.7836 -0.4467 0.9962 0 1
0.4724 8.8032 -0.4471 0.9975 0 1
0.2763 8.8363 -0.4483 0.9983 0 1
0.0787 8.8376 -0.4482 0.9986 0 1
-0.1189 8.8390 -0.4483 0.9984 0 1
-0.3167 8.8403 -0.4486 0.9977 0 1
-0.5149 8.8417 -0.4492 0.9965 0 1
-0.7136 8.8430 -0.4499 0.9948 0 1
-0.9131 8.8444 -0.4509 0.9926 0 1
-1.1136 8.8457 -0.4521 0.9899 0 1
-1.3153 8.8471 -0.4536 0.9867 0 1
-1.5184 8.8485 -0.4553 0.9831 0 1
-1.7231 8.8499 -0.4572 0.9789 0 1
-1.9296 8.8513 -0.4594 0.9742 0 1
-2.1383 8.8527 -0.4619 0.9691 0 1
-2.3360 8.8040 -0.4619 0.9635 0 1
-2.5484 8.8055 -0.4649 0.9573 0 1
-2.7720 8.8336 -0.4695 0.3085 0 1
-2.8921 8.5430 -0.4574 0.9437 0 1
-3.1072 8.5445 -0.4611 0.9361 0 1
-3.3258 8.5460 -0.4651 0.9281 0 1
-3.6795 8.8632 -0.4867 0.9197 0 1
-3.9147 8.8648 -0.4915 0.9107 0 1
-4.1546 8.8665 -0.4966 0.9014 0 1
-4.3998 8.8681 -0.5021 0.8915 0 1
-4.6243 8.8197 -0.5050 0.8813 0 1
-4.8095 8.6947 -0.5039 0.8705 0 1
-5.0381 5.3954 -0.3744 0.7416 0 9
-5.1444 5.2681 -0.3734 0.9917 0 9
-5.3413 5.2305 -0.3791 0.6911 0 9
-2.0469 -8.2092 -0.4291 0.9708 0 19
-1.5222 -8.4959 -0.4377 0.9843 0 19
-1.3272 -8.4972 -0.4362 0.9879 0 19
-0.6445 -9.8224 -0.4992 0.9971 0 19
-0.4222 -9.7742 -0.4962 0.9981 0 19
-0.2045 -9.8253 -0.4984 0.9987 0 19
0.0152 -9.8268 -0.4984 0.9988 0 19
0.2350 -9.8283 -0.4986 0.9983 0 19
0.4550 -9.8298 -0.4990 0.9974 0 19
0.6756 -9.8313 -0.4998 0.9960 0 19
0.8143 -8.9267 -0.4546 0.9940 0 19
3.7187 -8.7001 -0.4798 0.5629 0 9
3.9564 -8.7120 -0.4852 0.8917 0 9
4.1245 -8.5680 -0.4822 0.5216 0 9
4.3966 -8.6340 -0.4914 0.3390 0 9
4.5924 -8.5407 -0.4918 0.3723 0 9
4.7819 -8.4355 -0.4918 0.3137 0 9
4.9961 -8.3715 -0.4944 0.4677 0 9
5.2371 -8.3456 -0.4997 0.7897 0 9
8.5449 -5.1328 -0.5055 0.2746 0 7
8.5647 -4.8876 -0.5001 0.2776 0 7
8.5834 -4.6470 -0.4950 0.2804 0 7
8.6009 -4.4108 -0.4902 0.2832 0 7
8.6174 -4.1787 -0.4857 0.2858 0 7
8.6329 -3.9503 -0.4815 0.2883 0 7
8.6474 -3.7255 -0.4775 0.2907 0 7
8.6609 -3.5039 -0.4738 0.2930 0 7
8.6735 -3.2854 -0.4704 0.2951 0 7
8.6852 -3.0697 -0.4672 0.2971 0 7
8.6961 -2.8565 -0.4642 0.2990 0 7
8.7061 -2.6457 -0.4615 0.3008 0 7
8.7153 -2.4371 -0.4589 0.3024 0 7
8.7237 -2.2304 -0.4566 0.3040 0 7
8.7313 -2.0256 -0.4546 0.3054 0 7
8.7382 -1.8223 -0.4527 0.3066 0 6
8.7443 -1.6205 -0.4510 0.3078 0 6
8.7497 -1.4200 -0.4495 0.3088 0 7
5.4702 -0.7627 -0.2801 0.1085 24 10
4.8625 -0.5675 -0.2483 0.2506 24 10
4.7069 -0.4429 -0.2398 0.5774 24 10
4.6782 -0.3349 -0.2379 0.5820 24 10
4.6506 -0.2286 -0.2361 0.5678 24 10
4.6297 -0.1239 -0.2349 0.5708 24 10
4.6098 -0.0203 -0.2338 0.5914 24 10
4.6214 0.0829 -0.2344 0.5720 24 10
4.6423 0.1872 -0.2356 0.5690 24 10
4.6670 0.2928 -0.2371 0.5837 24 10
4.6956 0.4002 -0.2390 0.5792 24 10
4.7399 0.5109 -0.2418 0.2573 24 10
5.1415 0.6708 -0.2630 0.1193 24 10
8.7516 1.3413 -0.4490 0.3091 0 7
8.7465 1.5413 -0.4504 0.3082 0 7
8.7407 1.7426 -0.4520 0.3071 0 6
8.7341 1.9452 -0.4538 0.3059 0 7
8.7268 2.1494 -0.4558 0.3045 0 7
8.7187 2.3554 -0.4580 0.3031 0 7
8.7098 2.5632 -0.4604 0.3015 0 7
8.7001 2.7731 -0.4631 0.2997 0 7
8.6896 2.9853 -0.4660 0.2979 0 7
8.6782 3.2000 -0.4691 0.2959 0 7
8.6660 3.4174 -0.4724 0.2938 0 7
8.6528 3.6378 -0.4760 0.2916 0 7
8.6387 3.8613 -0.4799 0.2893 0 7
8.6237 4.0882 -0.4840 0.2868 0 7
8.6041 4.3171 -0.4882 0.2918 0 8
8.5748 4.5451 -0.4922 0.2895 0 8
8.4243 4.7095 -0.4895 0.5346 0 8
8.0772 4.7555 -0.4754 0.2758 0 8
8.0578 4.9899 -0.4807 0.2727 0 8
8.0373 5.2293 -0.4863 0.2696 0 8
8.0154 5.4739 -0.4922 0.2663 0 8
7.9923 5.7243 -0.4986 0.2629 0 8
7.9679 5.9807 -0.5053 0.2595 0 8
6.7101 5.2752 -0.4329 0.6328 0 5
6.4376 5.2980 -0.4228 0.7361 0 5
6.4413 5.5471 -0.4311 0.7219 0 5
5.1526 8.4634 -0.5025 0.8565 0 1
4.8978 8.4651 -0.4960 0.8677 0 1
4.6493 8.4667 -0.4899 0.8786 0 1
4.4067 8.4684 -0.4841 0.8890 0 1
4.1697 8.4700 -0.4788 0.8989 0 1
3.9377 8.4715 -0.4738 0.9084 0 1
3.7104 8.4731 -0.4691 0.9174 0 1
3.4874 8.4746 -0.4648 0.9260 0 1
3.2685 8.4761 -0.4607 0.9342 0 1
3.0531 8.4775 -0.4570 0.9418 0 1
2.8412 8.4790 -0.4535 0.9490 0 1
2.6323 8.4804 -0.4503 0.9557 0 1
2.4700 8.6343 -0.4554 0.1213 0 1
2.2294 8.5083 -0.4461 0.9677 0 1
2.0276 8.5096 -0.4436 0.9730 0 1
1.8317 8.5287 -0.4424 0.1821 0 1
1.6845 8.7968 -0.4542 0.9821 0 1
1.4817 8.7982 -0.4525 0.9859 0 1
1.2804 8.7996 -0.4510 0.9892 0 1
1.0803 8.8009 -0.4497 0.9920 0 1
0.8812 8.8023 -0.4486 0.9943 0 1
0.6853 8.8335 -0.4493 0.9961 0 1
0.4853 8.8031 -0.4471 0.9975 0 1
0.2892 8.8362 -0.4484 0.9983 0 1
0.0916 8.8375 -0.4482 0.9986 0 1
-0.1060 8.8389 -0.4483 0.9984 0 1
-0.3038 8.8402 -0.4486 0.9978 0 1
-0.5019 8.8416 -0.4491 0.9966 0 1
-0.7006 8.8429 -0.4499 0.9949 0 1
-0.9000 8.8443 -0.4508 0.9928 0 1
-1.1004 8.8456 -0.4521 0.9901 0 1
-1.3020 8.8470 -0.4535 0.9870 0 1
-1.5050 8.8484 -0.4552 0.9833 0 1
-1.7096 8.8498 -0.4571 0.9792 0 1
-1.9161 8.8512 -0.4593 0.9746 0 1
-2.1246 8.8526 -0.4617 0.9694 0 1
-2.3222 8.8040 -0.4618 0.9638 0 1
-2.5344 8.8054 -0.4647 0.9578 0 1
-2.7651 8.8570 -0.4706 0.9512 0 1
-2.8782 8.5429 -0.4572 0.9442 0 1
-3.0930 8.5444 -0.4608 0.9367 0 1
-3.3114 8.5459 -0.4648 0.9287 0 1
-3.6642 8.8631 -0.4864 0.9202 0 1
-3.8991 8.8647 -0.4911 0.9113 0 1
-4.1388 8.8663 -0.4962 0.9020 0 1
-4.3836 8.8680 -0.5017 0.8922 0 1
-4.6078 8.8196 -0.5046 0.8819 0 1
-4.7929 8.6946 -0.5035 0.8712 0 1
-5.0367 5.4097 -0.3749 0.7406 0 9
-5.1365 5.2754 -0.3734 0.9917 0 9
-5.3255 5.2303 -0.3786 0.6921 0 9
8.1099 2.5981 -0.6244 0.3210 0 7
8.0967 2.7948 -0.6280 0.3191 0 7
8.0823 2.9937 -0.6320 0.3171 0 7
8.0669 3.1948 -0.6362 0.3150 0 7
8.0503 3.3983 -0.6407 0.3128 0 7
8.0326 3.6045 -0.6455 0.3104 0 7
8.0137 3.8134 -0.6507 0.3080 0 7
7.9935 4.0254 -0.6562 0.3054 0 7
7.9721 4.2406 -0.6621 0.3027 0 7
7.9396 4.4538 -0.6675 0.3082 0 8
7.9049 4.6696 -0.6732 0.3056 0 8
7.6044 4.7245 -0.6564 0.5755 0 8
5.1905 3.3879 -0.4545 0.0884 0 10
5.0259 3.4431 -0.4467 0.1707 0 10
4.9230 3.5368 -0.4445 0.1954 0 10
4.8680 3.6651 -0.4468 0.1601 0 10
4.8328 3.8108 -0.4513 0.1638 0 10
4.8145 3.9740 -0.4577 0.1299 0 10
4.9253 4.2541 -0.4772 0.0752 0 10
7.2098 6.5143 -0.7125 0.2656 0 8
7.1700 6.7756 -0.7233 0.2617 0 8
5.1360 8.4639 -0.7259 0.8560 0 1
4.8815 8.4656 -0.7165 0.8672 0 1
4.6335 8.4673 -0.7077 0.8780 0 1
4.3913 8.4689 -0.6995 0.8883 0 1
4.1545 8.4705 -0.6918 0.8982 0 1
3.9229 8.4720 -0.6845 0.9077 0 1
3.6959 8.4736 -0.6778 0.9167 0 1
3.4731 8.4751 -0.6716 0.9252 0 1
3.2544 8.4765 -0.6658 0.9333 0 1
3.0393 8.4780 -0.6604 0.9409 0 1
2.8276 8.4794 -0.6554 0.9481 0 1
2.6189 8.4808 -0.6508 0.9548 0 1
2.4130 8.4822 -0.6466 0.9610 0 1
2.2097 8.4836 -0.6428 0.9667 0 1
2.0146 8.5101 -0.6412 0.9719 0 1
1.8714 8.7759 -0.6579 0.9766 0 1
1.6713 8.7973 -0.6566 0.9809 0 1
1.4686 8.7987 -0.6541 0.9847 0 1
1.2673 8.8000 -0.6519 0.9879 0 1
1.0673 8.8014 -0.6501 0.9907 0 1
0.8683 8.8027 -0.6486 0.9930 0 1
0.6686 8.7840 -0.6459 0.9948 0 1
0.4724 8.8036 -0.6464 0.9961 0 1
0.2753 8.8049 -0.6459 0.9969 0 1
0.0787 8.8380 -0.6480 0.9972 0 1
-0.1189 8.8393 -0.6482 0.9970 0 1
-0.3167 8.8407 -0.6486 0.9963 0 1
-0.5130 8.8103 -0.6471 0.9951 0 1
-0.7110 8.8116 -0.6482 0.9934 0 1
-0.9131 8.8447 -0.6520 0.9912 0 1
-1.1136 8.8461 -0.6537 0.9885 0 1
-1.3153 8.8475 -0.6558 0.9853 0 1
-1.5098 8.7988 -0.6546 0.9816 0 1
-1.7231 8.8503 -0.6611 0.9775 0 1
-1.9297 8.8517 -0.6643 0.9728 0 1
-2.1384 8.8531 -0.6678 0.9677 0 1
-2.3494 8.8545 -0.6717 0.9621 0 1
-2.5630 8.8560 -0.6760 0.9560 0 1
-2.7637 8.8074 -0.6768 0.9494 0 1
-2.8922 8.5434 -0.6613 0.9423 0 1
-3.1073 8.5449 -0.6667 0.9348 0 1
-3.4293 8.8119 -0.6933 0.9268 0 1
-3.6796 8.8636 -0.7037 0.9184 0 1
-3.9148 8.8652 -0.7106 0.9094 0 1
-4.1548 8.8669 -0.7180 0.9001 0 1
-4.4000 8.8685 -0.7259 0.8902 0 1
-5.0098 5.6114 -0.5516 0.4194 0 9
-5.0073 5.3623 -0.5379 0.7451 0 9
-5.1239 5.2470 -0.5377 0.9943 0 9
-5.3310 5.2204 -0.5471 0.6914 0 9
-2.8445 -8.2034 -0.6366 0.9446 0 19
-2.3197 -8.4901 -0.6453 0.9640 0 19
-2.1173 -8.4914 -0.6417 0.9694 0 19
-1.3093 -9.8174 -0.7262 0.9896 0 19
-1.0867 -9.8189 -0.7243 0.9921 0 19
-0.8652 -9.8204 -0.7228 0.9942 0 19
-0.6444 -9.8219 -0.7217 0.9957 0 19
-0.4243 -9.8234 -0.7209 0.9968 0 19
-0.2045 -9.8249 -0.7205 0.9974 0 19
0.0152 -9.8264 -0.7205 0.9974 0 19
0.2349 -9.8279 -0.7208 0.9970 0 19
0.4550 -9.8294 -0.7215 0.9961 0 19
0.6756 -9.8309 -0.7225 0.9946 0 19
0.8167 -8.9536 -0.6592 0.9927 0 19
2.8168 -8.6588 -0.6676 0.4214 0 9
3.2576 -8.6749 -0.6794 0.7583 0 9
3.4415 -8.5770 -0.6776 0.5165 0 9
3.6498 -8.5388 -0.6809 0.4214 0 9
3.7898 -8.3452 -0.6720 0.1862 0 9
4.0337 -8.3795 -0.6819 0.3209 0 9
4.2287 -8.3043 -0.6833 0.5952 0 9
4.5433 -8.4496 -0.7034 0.5794 0 9
4.7767 -8.4264 -0.7102 0.3465 0 9
5.0144 -8.4021 -0.7174 0.8981 0 9
5.2688 -8.3960 -0.7268 0.7809 0 9
7.7361 -6.1928 -0.7266 0.2758 0 7
7.7706 -5.9404 -0.7172 0.2794 0 7
7.8032 -5.6935 -0.7083 0.2830 0 7
7.8340 -5.4519 -0.6998 0.2864 0 7
7.8632 -5.2153 -0.6918 0.2897 0 6
7.8908 -4.9833 -0.6843 0.2929 0 7
7.9169 -4.7556 -0.6772 0.2959 0 7
7.9415 -4.5320 -0.6704 0.2989 0 7
7.9648 -4.3121 -0.6641 0.3018 0 7
7.9866 -4.0958 -0.6581 0.3045 0 7
8.0072 -3.8828 -0.6525 0.3071 0 7
8.0265 -3.6729 -0.6472 0.3096 0 7
8.0446 -3.4658 -0.6423 0.3120 0 7
8.0616 -3.2615 -0.6376 0.3143 0 7
8.0774 -3.0596 -0.6333 0.3164 0 7
8.0921 -2.8600 -0.6293 0.3185 0 7
8.1057 -2.6625 -0.6256 0.3204 0 7
8.1183 -2.4671 -0.6221 0.3221 0 7
8.1298 -2.2734 -0.6190 0.3238 0 7
8.1404 -2.0813 -0.6161 0.3253 0 7
8.1500 -1.8907 -0.6134 0.3267 0 6
8.1587 -1.7015 -0.6111 0.3280 0 7
8.1664 -1.5134 -0.6090 0.3291 0 7
8.1732 -1.3265 -0.6071 0.3301 0 7
4.9173 -0.6856 -0.3640 0.2467 24 10
4.6208 -0.5393 -0.3411 0.4220 24 10
4.5613 -0.4292 -0.3359 0.5950 24 10
4.5294 -0.3243 -0.3330 0.5700 24 10
4.5005 -0.2212 -0.3304 0.5859 24 10
4.4821 -0.1200 -0.3288 0.6072 24 10
4.4682 -0.0197 -0.3276 0.6093 24 10
4.4766 0.0804 -0.3283 0.6080 24 10
4.4929 0.1812 -0.3297 0.5871 24 10
4.5155 0.2833 -0.3317 0.5721 24 10
4.5507 0.3878 -0.3349 0.5668 24 10
4.5775 0.4934 -0.3376 0.5921 24 10
4.7875 0.6246 -0.3540 0.2073 24 10
5.4144 0.8298 -0.4016 0.0779 24 10
8.1692 1.4396 -0.6082 0.3295 0 7
8.1618 1.6272 -0.6102 0.3284 0 7
8.1536 1.8159 -0.6125 0.3272 0 7
8.1443 2.0060 -0.6150 0.3259 0 7
8.1341 2.1974 -0.6178 0.3244 0 7
8.1230 2.3905 -0.6208 0.3228 0 7
8.1108 2.5852 -0.6242 0.3211 0 7
8.0976 2.7819 -0.6278 0.3192 0 7
8.0833 2.9806 -0.6317 0.3173 0 7
8.0679 3.1816 -0.6359 0.3152 0 7
8.0514 3.3849 -0.6404 0.3129 0 7
8.0338 3.5909 -0.6452 0.3106 0 7
8.0150 3.7997 -0.6504 0.3081 0 7
7.9949 4.0114 -0.6559 0.3056 0 7
7.9735 4.2264 -0.6617 0.3029 0 7
7.9418 4.4398 -0.6671 0.3083 0 8
7.9072 4.6554 -0.6728 0.3057 0 8
7.6269 4.7231 -0.6578 0.5744 0 8
5.1972 3.3815 -0.4546 0.0884 0 10
5.0355 3.4389 -0.4471 0.1706 0 10
4.9276 3.5293 -0.4444 0.1954 0 10
4.8703 3.6556 -0.4465 0.1602 0 10
4.8346 3.8007 -0.4509 0.1639 0 10
4.8143 3.9620 -0.4572 0.1301 0 10
4.9141 4.2320 -0.4755 0.0027 0 10
7.2123 6.4975 -0.7118 0.2659 0 8
7.1727 6.7583 -0.7226 0.2619 0 8
5.1529 8.4638 -0.7265 0.8552 0 1
4.8980 8.4655 -0.7171 0.8665 0 1
4.6495 8.4671 -0.7083 0.8773 0 1
4.4069 8.4688 -0.7000 0.8877 0 1
4.1699 8.4704 -0.6922 0.8976 0 1
3.9379 8.4719 -0.6850 0.9071 0 1
3.7106 8.4735 -0.6783 0.9161 0 1
3.4876 8.4750 -0.6720 0.9247 0 1
3.2686 8.4764 -0.6661 0.9328 0 1
3.0533 8.4779 -0.6607 0.9405 0 1
2.8413 8.4793 -0.6557 0.9476 0 1
2.6325 8.4807 -0.6511 0.9543 0 1
2.4264 8.4821 -0.6469 0.9606 0 1
2.2229 8.4835 -0.6430 0.9663 0 1
2.0277 8.5100 -0.6414 0.9716 0 1
1.8848 8.7758 -0.6581 0.9763 0 1
1.6846 8.7972 -0.6567 0.9806 0 1
1.4818 8.7986 -0.6542 0.9844 0 1
1.2804 8.7999 -0.6520 0.9877 0 1
1.0803 8.8013 -0.6502 0.9906 0 1
0.8813 8.8027 -0.6487 0.9929 0 1
0.6815 8.7839 -0.6460 0.9947 0 1
0.4853 8.8035 -0.6465 0.9960 0 1
0.2882 8.8048 -0.6459 0.9969 0 1
0.0913 8.8062 -0.6457 0.9972 0 1
-0.1060 8.8393 -0.6482 0.9970 0 1
-0.3038 8.8406 -0.6486 0.9963 0 1
-0.5001 8.8102 -0.6470 0.9952 0 1
-0.6981 8.8115 -0.6481 0.9935 0 1
-0.9000 8.8446 -0.6519 0.9914 0 1
-1.1005 8.8460 -0.6536 0.9887 0 1
-1.3021 8.8474 -0.6557 0.9855 0 1
-1.5051 8.8488 -0.6581 0.9819 0 1
-1.7097 8.8502 -0.6609 0.9778 0 1
-1.9162 8.8516 -0.6641 0.9732 0 1
-2.1247 8.8530 -0.6676 0.9680 0 1
-2.3355 8.8544 -0.6714 0.9625 0 1
-2.5490 8.8559 -0.6757 0.9564 0 1
-2.7496 8.8073 -0.6765 0.9498 0 1
-2.8783 8.5433 -0.6610 0.9428 0 1
-3.0931 8.5448 -0.6663 0.9353 0 1
-3.4144 8.8118 -0.6929 0.9273 0 1
-3.6644 8.8635 -0.7032 0.9189 0 1
-3.8993 8.8651 -0.7101 0.9100 0 1
-4.1390 8.8668 -0.7175 0.9007 0 1
-4.3838 8.8684 -0.7254 0.8909 0 1
-5.0170 5.6361 -0.5533 0.4181 0 9
-5.0058 5.3765 -0.5386 0.7442 0 9
-5.1160 5.2543 -0.5377 0.9943 0 9
-5.3153 5.2202 -0.5463 0.6925 0 9
7.5936 2.4327 -0.7655 0.3421 0 7
7.5784 2.6159 -0.7697 0.3403 0 7
7.5620 2.8010 -0.7742 0.3383 0 7
7.5443 2.9878 -0.7790 0.3362 0 7
7.5253 3.1767 -0.7842 0.3340 0 7
7.5051 3.3677 -0.7897 0.3316 0 7
7.4834 3.5611 -0.7956 0.3292 0 7
7.4604 3.7569 -0.8019 0.3266 0 7
7.4360 3.9554 -0.8086 0.3239 0 7
7.4101 4.1568 -0.8157 0.3211 0 7
5.0056 2.9569 -0.5581 0.3780 0 10
4.8333 3.0029 -0.5463 0.4866 0 10
4.6660 3.0456 -0.5349 0.2643 0 10
4.5880 3.1431 -0.5339 0.3165 0 10
4.5128 3.2421 -0.5335 0.3196 0 10
4.4437 3.3456 -0.5340 0.2961 0 10
4.4104 3.4777 -0.5392 0.3424 0 10
4.3844 3.6190 -0.5458 0.3477 0 10
4.3624 3.7679 -0.5534 0.3523 0 10
3.7320 3.3720 -0.4829 0.0944 0 10
3.5430 3.3481 -0.4680 0.0956 0 10
3.4115 3.3713 -0.4605 0.1790 0 10
3.2830 3.3927 -0.4532 0.5495 0 10
3.2227 3.4829 -0.4556 0.2674 0 10
3.1609 3.5732 -0.4580 0.1857 0 10
3.1174 3.6868 -0.4635 0.2309 0 10
3.0821 3.8149 -0.4708 0.2208 0 10
3.0469 3.9488 -0.4788 0.2172 0 10
3.0517 4.1432 -0.4940 0.1276 0 10
5.1363 8.4643 -0.9505 0.8543 0 1
4.8818 8.4660 -0.9382 0.8655 0 1
4.6337 8.4677 -0.9267 0.8763 0 1
4.3915 8.4693 -0.9159 0.8866 0 1
4.1547 8.4709 -0.9058 0.8965 0 1
3.9230 8.4724 -0.8964 0.9059 0 1
3.6960 8.4740 -0.8876 0.9149 0 1
3.4733 8.4754 -0.8794 0.9234 0 1
3.2546 8.4769 -0.8717 0.9315 0 1
3.0395 8.4784 -0.8647 0.9391 0 1
2.8277 8.4798 -0.8582 0.9462 0 1
2.6190 8.4812 -0.8522 0.9529 0 1
2.4131 8.4826 -0.8467 0.9591 0 1
2.2098 8.4840 -0.8417 0.9648 0 1
2.0147 8.5105 -0.8396 0.9700 0 1
1.8821 8.8262 -0.8664 0.9747 0 1
1.6713 8.7977 -0.8597 0.9790 0 1
1.4686 8.7991 -0.8564 0.9828 0 1
1.2674 8.8004 -0.8536 0.9860 0 1
1.0673 8.8018 -0.8512 0.9888 0 1
0.8683 8.8031 -0.8492 0.9911 0 1
0.6724 8.8343 -0.8506 0.9929 0 1
0.4724 8.8040 -0.8464 0.9942 0 1
0.2753 8.8053 -0.8458 0.9949 0 1
0.0784 8.8066 -0.8455 0.9952 0 1
-0.1185 8.8080 -0.8457 0.9950 0 1
-0.3156 8.8093 -0.8463 0.9943 0 1
-0.5130 8.8107 -0.8473 0.9931 0 1
-0.7111 8.8120 -0.8487 0.9915 0 1
-0.9132 8.8451 -0.8537 0.9893 0 1
-1.1137 8.8465 -0.8560 0.9866 0 1
-1.3154 8.8479 -0.8588 0.9834 0 1
-1.5099 8.7992 -0.8571 0.9798 0 1
-1.7232 8.8506 -0.8657 0.9756 0 1
-1.9298 8.8520 -0.8698 0.9709 0 1
-2.1385 8.8535 -0.8744 0.9658 0 1
-2.3495 8.8549 -0.8795 0.9602 0 1
-2.5631 8.8564 -0.8851 0.9541 0 1
-2.7155 8.6535 -0.8707 0.3194 0 1
-2.8924 8.5438 -0.8660 0.9405 0 1
-3.1074 8.5453 -0.8730 0.9330 0 1
-3.4490 8.8624 -0.9130 0.9250 0 1
-3.6798 8.8640 -0.9214 0.9166 0 1
-3.9150 8.8656 -0.9304 0.9077 0 1
-4.1315 8.8171 -0.9348 0.8983 0 1
-4.3753 8.8188 -0.9451 0.8886 0 1
-4.9459 5.5399 -0.7130 0.7624 0 9
-4.9836 5.3370 -0.7010 0.9966 0 9
-5.1034 5.2261 -0.7013 0.9964 0 9
-5.3827 5.2710 -0.7233 0.1428 0 9
-2.5111 -8.4436 -0.8457 0.2922 0 19
-2.4722 -9.0485 -0.9005 0.2715 0 19
-1.0867 -9.8185 -0.9484 0.9903 0 19
-0.8651 -9.8200 -0.9464 0.9923 0 19
-0.6444 -9.8215 -0.9449 0.9939 0 19
-0.4243 -9.8230 -0.9439 0.9949 0 19
-0.2034 -9.7749 -0.9386 0.9955 0 19
0.0152 -9.8260 -0.9433 0.9956 0 19
0.2349 -9.8275 -0.9438 0.9951 0 19
0.4550 -9.8290 -0.9446 0.9942 0 19
0.6755 -9.8305 -0.9460 0.9928 0 19
0.8159 -8.9447 -0.8623 0.0690 0 19
2.2244 -8.8051 -0.8719 0.5961 0 9
2.4002 -8.6792 -0.8645 0.2097 0 9
2.5704 -8.5460 -0.8568 0.8586 0 9
2.7878 -8.5696 -0.8652 0.9905 0 9
3.0405 -8.6817 -0.8831 0.5580 0 9
3.1780 -8.4630 -0.8679 0.6509 0 9
3.3519 -8.3538 -0.8642 0.3407 0 9
3.5706 -8.3536 -0.8722 0.3788 0 9
3.8125 -8.3950 -0.8852 0.5623 0 9
3.9975 -8.3042 -0.8848 0.7660 0 9
4.2326 -8.3120 -0.8955 0.4987 0 9
4.5346 -8.4333 -0.9193 0.6748 0 9
4.8303 -8.5209 -0.9403 0.2432 0 9
5.0070 -8.3898 -0.9380 0.6946 0 9
5.2588 -8.3801 -0.9498 0.4463 0 9
6.9414 -6.9613 -0.9438 0.2775 0 7
6.9918 -6.7051 -0.9300 0.2816 0 7
7.0396 -6.4552 -0.9170 0.2856 0 7
7.0850 -6.2111 -0.9046 0.2895 0 7
7.1280 -5.9724 -0.8928 0.2934 0 7
7.1689 -5.7388 -0.8816 0.2971 0 7
7.2077 -5.5101 -0.8710 0.3007 0 7
7.2445 -5.2859 -0.8610 0.3042 0 6
7.2793 -5.0659 -0.8514 0.3076 0 7
7.3124 -4.8499 -0.8424 0.3109 0 7
7.3437 -4.6377 -0.8339 0.3141 0 7
7.3733 -4.4290 -0.8258 0.3172 0 7
7.4012 -4.2236 -0.8181 0.3201 0 7
7.4277 -4.0213 -0.8109 0.3230 0 7
7.4526 -3.8219 -0.8041 0.3257 0 7
7.4760 -3.6252 -0.7977 0.3283 0 7
7.4981 -3.4311 -0.7916 0.3308 0 7
7.5188 -3.2393 -0.7860 0.3332 0 7
7.5382 -3.0497 -0.7807 0.3355 0 7
