ply
format ascii 1.0
element vertex 1404
property float32 x
property float32 y
property float32 z
property float32 CosAngle
property uint32 ObjIdx
property uint32 ObjTag
end_header
4.2524 0.3672 -0.5070 0.5378 24 10
4.2828 0.4665 -0.5117 0.5328 24 10
4.3636 0.5742 -0.5228 0.3818 24 10
4.5356 0.7003 -0.5452 0.2415 24 10
7.2115 1.2790 -0.8700 0.3716 0 7
7.2021 1.4440 -0.8725 0.3705 0 7
7.1916 1.6099 -0.8754 0.3693 0 7
7.1800 1.7766 -0.8786 0.3679 0 6
7.1671 1.9444 -0.8821 0.3665 0 7
7.1530 2.1132 -0.8860 0.3649 0 7
7.1376 2.2833 -0.8902 0.3631 0 7
7.1210 2.4547 -0.8947 0.3613 0 7
7.1030 2.6275 -0.8996 0.3593 0 7
7.0838 2.8019 -0.9049 0.3572 0 7
7.0632 2.9779 -0.9105 0.3550 0 7
7.0411 3.1557 -0.9165 0.3527 0 7
7.0176 3.3354 -0.9230 0.3502 0 7
6.9927 3.5172 -0.9298 0.3477 0 7
6.9662 3.7012 -0.9370 0.3450 0 7
5.1821 2.9036 -0.7056 0.3162 0 10
4.8806 2.8798 -0.6731 0.5259 0 10
4.6698 2.8980 -0.6528 0.5579 0 10
4.5125 2.9420 -0.6399 0.4732 0 10
4.3485 2.9757 -0.6259 0.5189 0 10
4.1960 3.0112 -0.6135 0.3731 0 10
4.0248 3.0268 -0.5982 0.3453 0 10
3.8535 3.0351 -0.5827 0.5843 0 10
3.7012 3.0516 -0.5698 0.6256 0 10
3.5700 3.0800 -0.5601 0.7154 0 10
3.4214 3.0878 -0.5475 0.7100 0 10
3.2908 3.1061 -0.5375 0.7059 0 10
3.1717 3.1306 -0.5294 0.6266 0 10
3.0687 3.1675 -0.5239 0.5391 0 10
2.9991 3.2374 -0.5242 0.3677 0 10
2.9399 3.3192 -0.5267 0.3357 0 10
2.8848 3.4075 -0.5303 0.3609 0 10
2.8302 3.4986 -0.5345 0.3807 0 10
2.7898 3.6108 -0.5420 0.2911 0 10
2.7565 3.7374 -0.5516 0.2860 0 10
2.7229 3.8699 -0.5621 0.2750 0 10
2.6892 4.0095 -0.5735 0.1752 0 10
2.7024 4.2306 -0.5963 0.1690 0 10
5.1444 8.4647 -1.1766 0.8519 0 1
4.8898 8.4664 -1.1614 0.8630 0 1
4.6416 8.4680 -1.1471 0.8738 0 1
4.3993 8.4696 -1.1337 0.8841 0 1
4.1624 8.4712 -1.1212 0.8940 0 1
3.9307 8.4728 -1.1095 0.9034 0 1
3.7036 8.4743 -1.0986 0.9124 0 1
3.4808 8.4758 -1.0884 0.9209 0 1
3.2620 8.4773 -1.0790 0.9290 0 1
3.0468 8.4787 -1.0702 0.9365 0 1
2.8351 8.4801 -1.0621 0.9437 0 1
2.6263 8.4815 -1.0547 0.9503 0 1
2.4204 8.4829 -1.0479 0.9565 0 1
2.2236 8.5094 -1.0447 0.9622 0 1
2.0219 8.5108 -1.0391 0.9674 0 1
1.8832 8.7966 -1.0686 0.9722 0 1
1.6789 8.7980 -1.0639 0.9764 0 1
1.4762 8.7994 -1.0598 0.9802 0 1
1.2749 8.8007 -1.0563 0.9835 0 1
1.0749 8.8021 -1.0533 0.9863 0 1
0.8759 8.8034 -1.0509 0.9886 0 1
0.6801 8.8347 -1.0525 0.9904 0 1
0.4818 8.8360 -1.0512 0.9917 0 1
0.2830 8.8056 -1.0465 0.9925 0 1
0.0862 8.8069 -1.0462 0.9928 0 1
-0.1107 8.8083 -1.0464 0.9926 0 1
-0.3076 8.8096 -1.0471 0.9919 0 1
-0.5050 8.8110 -1.0483 0.9908 0 1
-0.7030 8.8123 -1.0501 0.9891 0 1
-0.9017 8.8137 -1.0524 0.9869 0 1
-1.1013 8.8150 -1.0552 0.9843 0 1
-1.3022 8.8164 -1.0586 0.9811 0 1
-1.5099 8.8496 -1.0664 0.9775 0 1
-1.7087 8.8210 -1.0673 0.9734 0 1
-1.9144 8.8224 -1.0724 0.9688 0 1
-2.1222 8.8238 -1.0780 0.9637 0 1
-2.3403 8.8552 -1.0880 0.9581 0 1
-2.5537 8.8567 -1.0949 0.9520 0 1
-2.6713 8.5427 -1.0632 0.9455 0 1
-2.8828 8.5441 -1.0711 0.9385 0 1
-3.0977 8.5456 -1.0797 0.9310 0 1
-3.4386 8.8628 -1.1292 0.9231 0 1
-3.6692 8.8644 -1.1396 0.9147 0 1
-3.9041 8.8660 -1.1507 0.9059 0 1
-4.1438 8.8676 -1.1627 0.8965 0 1
-4.3638 8.8191 -1.1688 0.8868 0 1
-4.9094 5.5118 -0.8768 0.7561 0 9
-4.9592 5.3234 -0.8642 0.9981 0 9
-5.0784 5.2127 -0.8645 0.9993 0 9
-5.3754 5.2765 -0.8948 0.1425 0 9
-2.5342 -8.4606 -1.0491 0.9534 0 19
-2.4157 -8.7736 -1.0810 0.2786 0 19
-2.4186 -9.6188 -1.1781 0.9649 0 19
-1.3263 -9.7941 -1.1740 0.9851 0 19
-1.1068 -9.8180 -1.1736 0.9877 0 19
-0.8853 -9.8195 -1.1711 0.9898 0 19
-0.6646 -9.8210 -1.1693 0.9914 0 19
-0.4445 -9.8225 -1.1680 0.9925 0 19
-0.2242 -9.8016 -1.1646 0.9931 0 19
-0.0052 -9.8254 -1.1671 0.9932 0 19
0.2145 -9.8269 -1.1676 0.9928 0 19
0.4344 -9.8284 -1.1686 0.9919 0 19
0.6548 -9.8299 -1.1702 0.9906 0 19
0.9968 -8.9268 -1.0670 0.9863 0 19
1.3764 -8.7569 -1.0530 0.9450 0 9
1.7668 -8.6896 -1.0533 0.3605 0 9
1.9635 -8.6608 -1.0549 0.9815 0 9
2.1624 -8.6383 -1.0578 0.9767 0 9
2.3662 -8.6290 -1.0628 0.7582 0 9
2.4924 -8.3530 -1.0354 0.3232 0 9
2.6918 -8.3364 -1.0406 0.3208 0 9
2.9011 -8.3425 -1.0492 0.1117 0 9
3.1200 -8.3646 -1.0605 0.5105 0 9
3.3109 -8.3048 -1.0620 0.5605 0 9
3.5395 -8.3320 -1.0753 0.1669 0 9
3.7846 -8.3834 -1.0926 0.4329 0 9
4.0076 -8.3731 -1.1027 0.7556 0 9
4.2520 -8.3966 -1.1180 0.2989 0 9
4.5171 -8.4465 -1.1378 0.2522 0 9
4.7489 -8.4218 -1.1485 0.3794 0 9
4.9665 -8.3650 -1.1556 0.5598 0 9
6.1145 -7.7199 -1.1698 0.2763 0 7
6.1838 -7.4587 -1.1509 0.2809 0 7
6.2496 -7.2042 -1.1329 0.2853 0 7
6.3122 -6.9561 -1.1158 0.2897 0 7
6.3718 -6.7139 -1.0995 0.2940 0 7
6.4284 -6.4774 -1.0840 0.2982 0 7
6.4823 -6.2461 -1.0693 0.3023 0 7
6.5335 -6.0198 -1.0553 0.3063 0 7
6.5822 -5.7982 -1.0420 0.3102 0 7
6.6286 -5.5810 -1.0293 0.3141 0 7
6.6726 -5.3679 -1.0173 0.3178 0 7
6.7145 -5.1588 -1.0058 0.3214 0 7
6.7543 -4.9534 -0.9949 0.3249 0 7
6.7921 -4.7514 -0.9846 0.3283 0 7
6.8279 -4.5527 -0.9748 0.3316 0 7
6.8619 -4.3570 -0.9655 0.3348 0 7
6.8941 -4.1643 -0.9567 0.3379 0 7
6.9246 -3.9743 -0.9484 0.3409 0 7
6.9534 -3.7869 -0.9405 0.3437 0 7
6.9806 -3.6018 -0.9331 0.3465 0 7
7.0063 -3.4190 -0.9261 0.3491 0 7
7.0305 -3.2384 -0.9195 0.3516 0 7
7.0532 -3.0597 -0.9133 0.3540 0 7
7.0744 -2.8828 -0.9074 0.3562 0 7
7.0943 -2.7077 -0.9020 0.3584 0 7
7.1129 -2.5342 -0.8969 0.3604 0 7
7.1301 -2.3622 -0.8922 0.3623 0 7
7.1460 -2.1915 -0.8879 0.3641 0 7
7.1607 -2.0221 -0.8839 0.3657 0 7
7.1742 -1.8539 -0.8802 0.3673 0 6
7.1864 -1.6867 -0.8768 0.3687 0 7
7.1974 -1.5204 -0.8738 0.3699 0 7
7.2073 -1.3550 -0.8711 0.3711 0 7
4.6824 -0.7724 -0.5637 0.2130 24 10
4.4302 -0.6295 -0.5315 0.3547 24 10
4.3033 -0.5136 -0.5148 0.4678 24 10
4.2664 -0.4128 -0.5092 0.5355 24 10
4.2360 -0.3145 -0.5046 0.5404 24 10
4.2146 -0.2183 -0.5013 0.5609 24 10
4.2050 -0.1237 -0.4997 0.5627 24 10
4.1958 -0.0297 -0.4984 0.5812 24 10
4.1988 0.0642 -0.4988 0.5637 24 10
4.2086 0.1584 -0.5003 0.5621 24 10
4.2181 0.2533 -0.5019 0.5602 24 10
4.2472 0.3504 -0.5062 0.5386 24 10
4.2775 0.4493 -0.5109 0.5337 24 10
4.3408 0.5543 -0.5198 0.3840 24 10
4.4858 0.6750 -0.5388 0.3498 24 10
4.9995 0.8670 -0.6027 0.0837 24 10
7.2038 1.4157 -0.8721 0.3707 0 7
7.1935 1.5814 -0.8749 0.3695 0 7
7.1820 1.7480 -0.8780 0.3682 0 6
7.1694 1.9156 -0.8815 0.3667 0 7
7.1555 2.0842 -0.8853 0.3652 0 7
7.1403 2.2541 -0.8894 0.3635 0 7
7.1239 2.4252 -0.8939 0.3616 0 7
7.1062 2.5978 -0.8988 0.3597 0 7
7.0872 2.7719 -0.9040 0.3576 0 7
7.0668 2.9476 -0.9095 0.3554 0 7
7.0450 3.1251 -0.9155 0.3531 0 7
7.0218 3.3045 -0.9218 0.3507 0 7
6.9971 3.4860 -0.9286 0.3481 0 7
6.9708 3.6695 -0.9358 0.3455 0 7
5.3781 2.9865 -0.7307 0.0980 0 10
4.9181 2.8766 -0.6768 0.5478 0 10
4.7041 2.8945 -0.6561 0.5551 0 10
4.5361 2.9328 -0.6416 0.4719 0 10
4.3765 2.9703 -0.6283 0.5304 0 10
4.2172 3.0020 -0.6149 0.3722 0 10
4.0573 3.0271 -0.6013 0.3435 0 10
3.8823 3.0338 -0.5853 0.3926 0 10
3.7264 3.0485 -0.5719 0.6233 0 10
3.5940 3.0768 -0.5620 0.7130 0 10
3.4444 3.0848 -0.5492 0.7077 0 10
3.3128 3.1030 -0.5392 0.7037 0 10
3.1930 3.1277 -0.5309 0.4791 0 10
3.0835 3.1585 -0.5243 0.5047 0 10
3.0097 3.2239 -0.5239 0.3679 0 10
2.9498 3.3048 -0.5262 0.3360 0 10
2.8941 3.3921 -0.5297 0.3614 0 10
2.8394 3.4827 -0.5338 0.3667 0 10
2.7954 3.5895 -0.5404 0.2919 0 10
2.7623 3.7154 -0.5500 0.2869 0 10
2.7287 3.8468 -0.5602 0.2759 0 10
2.6940 3.9836 -0.5712 0.2706 0 10
2.7001 4.1916 -0.5923 0.1701 0 10
5.1887 8.4644 -1.1793 0.8499 0 1
4.9329 8.4661 -1.1639 0.8611 0 1
4.6836 8.4677 -1.1495 0.8720 0 1
4.4404 8.4694 -1.1359 0.8824 0 1
4.2026 8.4709 -1.1233 0.8923 0 1
3.9700 8.4725 -1.1114 0.9018 0 1
3.7421 8.4740 -1.1004 0.9109 0 1
3.5186 8.4755 -1.0901 0.9195 0 1
3.2992 8.4770 -1.0805 0.9276 0 1
3.0834 8.4785 -1.0717 0.9353 0 1
-1.2882 -9.7939 -1.3996 0.9828 0 19
-1.0688 -9.8178 -1.3993 0.9853 0 19
-0.8474 -9.8193 -1.3965 0.9873 0 19
-0.6268 -9.8208 -1.3943 0.9888 0 19
-0.4068 -9.8223 -1.3929 0.9898 0 19
-0.1862 -9.7742 -1.3851 0.9903 0 19
0.0324 -9.8253 -1.3921 0.9903 0 19
0.2521 -9.8268 -1.3928 0.9898 0 19
0.4721 -9.8283 -1.3942 0.9889 0 19
0.6926 -9.8298 -1.3962 0.9874 0 19
0.9138 -9.8312 -1.3990 0.9855 0 19
1.0094 -8.7363 -1.2461 0.6218 0 9
1.2000 -8.6801 -1.2416 0.9532 0 9
1.3643 -8.4685 -1.2154 0.7672 0 9
1.5872 -8.6211 -1.2420 0.9249 0 9
1.7591 -8.4851 -1.2278 0.3140 0 9
1.9507 -8.4544 -1.2294 0.3844 0 9
2.1248 -8.3524 -1.2211 0.3975 0 9
2.3253 -8.3544 -1.2287 0.4490 0 9
2.5430 -8.4048 -1.2442 0.6586 0 9
2.7474 -8.3987 -1.2521 0.8343 0 9
2.9308 -8.3250 -1.2505 0.3015 0 9
3.1682 -8.3954 -1.2714 0.2124 0 9
3.3768 -8.3767 -1.2797 0.4259 0 9
3.6136 -8.4169 -1.2978 0.6244 0 9
3.8195 -8.3749 -1.3042 0.5352 0 9
4.0692 -8.4190 -1.3249 0.7366 0 9
4.3013 -8.4140 -1.3389 0.5340 0 9
4.5824 -8.4903 -1.3670 0.9031 0 9
4.7925 -8.4235 -1.3732 0.2644 0 8
4.9115 -8.2007 -1.3544 0.8817 0 8
5.1554 -8.1872 -1.3709 0.8711 0 8
5.3469 -8.0848 -1.3734 0.2932 0 8
5.4405 -7.8399 -1.3521 0.2978 0 8
5.5257 -7.5945 -1.3308 0.2889 0 7
5.6033 -7.3502 -1.3095 0.2936 0 7
5.6772 -7.1117 -1.2893 0.2982 0 7
5.7476 -6.8788 -1.2701 0.3027 0 7
5.8147 -6.6513 -1.2518 0.3071 0 7
5.8786 -6.4287 -1.2343 0.3115 0 7
5.9395 -6.2108 -1.2176 0.3157 0 7
5.9976 -5.9973 -1.2018 0.3199 0 7
6.0530 -5.7880 -1.1866 0.3240 0 7
6.1057 -5.5826 -1.1722 0.3280 0 7
6.1559 -5.3810 -1.1585 0.3319 0 7
6.2038 -5.1829 -1.1454 0.3357 0 6
6.2494 -4.9882 -1.1330 0.3393 0 7
6.2927 -4.7966 -1.1211 0.3429 0 7
6.3340 -4.6080 -1.1098 0.3464 0 7
6.3732 -4.4221 -1.0991 0.3498 0 7
6.4105 -4.2390 -1.0889 0.3531 0 7
6.4458 -4.0583 -1.0793 0.3562 0 7
6.4794 -3.8800 -1.0701 0.3593 0 7
6.5112 -3.7040 -1.0614 0.3622 0 7
6.5413 -3.5300 -1.0532 0.3651 0 7
6.5697 -3.3580 -1.0454 0.3678 0 7
6.5965 -3.1879 -1.0381 0.3704 0 7
6.6218 -3.0195 -1.0312 0.3728 0 7
6.6455 -2.8527 -1.0247 0.3752 0 7
6.6677 -2.6874 -1.0186 0.3774 0 7
6.6886 -2.5236 -1.0129 0.3796 0 7
6.7080 -2.3611 -1.0076 0.3816 0 7
6.7260 -2.1998 -1.0027 0.3834 0 7
6.7427 -2.0396 -0.9981 0.3852 0 7
6.7580 -1.8805 -0.9939 0.3868 0 6
6.7721 -1.7224 -0.9901 0.3883 0 7
6.7849 -1.5651 -0.9866 0.3897 0 6
6.7964 -1.4086 -0.9834 0.3909 0 7
6.8067 -1.2528 -0.9806 0.3921 0 7
4.3764 -0.7048 -0.6281 0.3685 24 10
4.2104 -0.5818 -0.6022 0.3942 24 10
4.1372 -0.4778 -0.5901 0.5495 24 10
4.1093 -0.3817 -0.5847 0.5546 24 10
4.0827 -0.2874 -0.5799 0.5639 24 10
4.0673 -0.1951 -0.5770 0.5796 24 10
4.0591 -0.1039 -0.5753 0.5988 24 10
4.0562 -0.0131 -0.5747 0.5995 24 10
4.0583 0.0775 -0.5751 0.5990 24 10
4.0648 0.1686 -0.5764 0.5802 24 10
4.0751 0.2603 -0.5786 0.5652 24 10
4.1014 0.3542 -0.5833 0.5606 24 10
4.1291 0.4497 -0.5885 0.5510 24 10
4.1864 0.5509 -0.5983 0.4787 24 10
4.3006 0.6640 -0.6166 0.3850 24 10
4.5797 0.8122 -0.6590 0.2561 24 10
6.7995 1.3633 -0.9826 0.3913 0 7
6.7883 1.5196 -0.9856 0.3901 0 7
6.7759 1.6767 -0.9890 0.3887 0 7
6.7622 1.8345 -0.9928 0.3873 0 7
6.7473 1.9934 -0.9969 0.3857 0 7
6.7310 2.1532 -1.0013 0.3840 0 7
6.7133 2.3142 -1.0061 0.3821 0 7
6.6943 2.4763 -1.0113 0.3802 0 7
6.6739 2.6397 -1.0169 0.3781 0 7
6.6521 2.8046 -1.0229 0.3759 0 7
6.6288 2.9709 -1.0292 0.3735 0 7
6.6040 3.1388 -1.0360 0.3711 0 7
6.5776 3.3085 -1.0432 0.3685 0 7
6.5497 3.4799 -1.0509 0.3659 0 7
5.0960 2.8553 -0.8277 0.4896 0 10
5.0298 2.9678 -0.8275 0.3507 0 10
4.6062 2.8585 -0.7681 0.5275 0 10
4.4170 2.8798 -0.7471 0.5476 0 10
4.2248 2.8910 -0.7253 0.5879 0 10
3.8192 2.7408 -0.6661 0.6734 0 10
3.9553 2.9745 -0.7012 0.6898 0 10
3.8173 3.0066 -0.6885 0.6873 0 10
3.6702 3.0260 -0.6740 0.7071 0 10
3.5295 3.0451 -0.6605 0.7170 0 10
3.3939 3.0630 -0.6478 0.7322 0 10
3.2633 3.0802 -0.6358 0.7538 0 10
3.1386 3.0980 -0.6248 0.7579 0 10
3.0194 3.1166 -0.6148 0.7884 0 10
2.8953 3.1253 -0.6036 0.7364 0 10
2.8005 3.1619 -0.5985 0.7176 0 10
2.7335 3.2287 -0.5994 0.4438 0 10
2.6781 3.3106 -0.6033 0.4012 0 10
2.6259 3.3986 -0.6085 0.3978 0 10
2.5723 3.4876 -0.6140 0.3944 0 10
2.5256 3.5895 -0.6219 0.3018 0 10
2.4879 3.7093 -0.6328 0.2965 0 10
2.4490 3.8339 -0.6446 0.2852 0 10
2.4091 3.9639 -0.6572 0.2972 0 10
2.3990 4.1536 -0.6796 0.2006 0 10
4.6418 8.4684 -1.3683 0.8712 0 1
4.3995 8.4700 -1.3524 0.8815 0 1
4.1626 8.4716 -1.3374 0.8913 0 1
3.9309 8.4732 -1.3235 0.9007 0 1
3.7038 8.4747 -1.3104 0.9097 0 1
3.4810 8.4762 -1.2983 0.9182 0 1
3.2621 8.4776 -1.2870 0.9262 0 1
3.0470 8.4791 -1.2766 0.9338 0 1
2.8352 8.4805 -1.2670 0.9409 0 1
2.6265 8.4819 -1.2581 0.9475 0 1
2.4205 8.4833 -1.2500 0.9537 0 1
2.2237 8.5098 -1.2462 0.9594 0 1
2.0562 8.6551 -1.2605 0.1770 0 1
1.8894 8.8252 -1.2788 0.1900 0 1
1.6846 8.8283 -1.2734 0.9735 0 1
1.4762 8.7998 -1.2643 0.9773 0 1
1.2750 8.8011 -1.2600 0.9806 0 1
1.0750 8.8025 -1.2565 0.9833 0 1
0.8740 8.7837 -1.2507 0.9856 0 1
0.6801 8.8350 -1.2555 0.9874 0 1
0.4819 8.8364 -1.2539 0.9887 0 1
0.2841 8.8377 -1.2529 0.9895 0 1
0.0862 8.8073 -1.2480 0.9898 0 1
-0.1107 8.8087 -1.2482 0.9897 0 1
-0.3088 8.8418 -1.2535 0.9890 0 1
-0.5069 8.8431 -1.2550 0.9878 0 1
-0.7055 8.8445 -1.2571 0.9862 0 1
-0.9017 8.8141 -1.2554 0.9840 0 1
-1.1014 8.8154 -1.2588 0.9814 0 1
-1.3069 8.8486 -1.2673 0.9782 0 1
-1.5099 8.8499 -1.2721 0.9746 0 1
-1.7087 8.8214 -1.2731 0.9705 0 1
-1.9145 8.8228 -1.2792 0.9659 0 1
-2.1223 8.8242 -1.2860 0.9608 0 1
-2.3324 8.8256 -1.2934 0.9552 0 1
-2.5447 8.8255 -1.3014 0.3083 0 1
-2.6714 8.5430 -1.2683 0.9427 0 1
-2.8830 8.5445 -1.2777 0.9357 0 1
-3.0978 8.5460 -1.2880 0.9283 0 1
-3.4388 8.8632 -1.3470 0.9204 0 1
-3.6693 8.8648 -1.3594 0.9120 0 1
-3.9043 8.8664 -1.3727 0.9032 0 1
-4.1440 8.8680 -1.3869 0.8939 0 1
-4.3889 8.8697 -1.4022 0.8842 0 1
-4.8707 5.4684 -1.0376 0.8241 0 9
-4.9418 5.3047 -1.0272 0.9987 0 9
-5.0693 5.2035 -1.0293 0.7098 0 9
-2.3781 -8.6369 -1.2693 0.9566 0 19
-2.3907 -9.5080 -1.3891 0.2631 0 19
-1.3226 -9.7664 -1.3964 0.9823 0 19
-1.1067 -9.8175 -1.3999 0.9849 0 19
-0.8852 -9.8191 -1.3969 0.9870 0 19
-0.6645 -9.8206 -1.3946 0.9885 0 19
-0.4444 -9.8220 -1.3931 0.9896 0 19
-0.2247 -9.8235 -1.3923 0.9902 0 19
-0.0052 -9.8250 -1.3921 0.9903 0 19
0.2145 -9.8265 -1.3926 0.9900 0 19
0.4344 -9.8280 -1.3939 0.9891 0 19
0.6548 -9.8295 -1.3958 0.9877 0 19
0.8759 -9.8310 -1.3985 0.9858 0 19
0.9648 -8.6395 -1.2317 0.9825 0 9
1.1665 -8.6826 -1.2413 0.9534 0 9
1.3283 -8.4513 -1.2122 0.7692 0 9
1.5553 -8.6330 -1.2429 0.9243 0 9
1.7357 -8.5366 -1.2343 0.2824 0 9
1.9358 -8.5387 -1.2405 0.3809 0 9
2.0936 -8.3634 -1.2216 0.3973 0 9
2.2930 -8.3622 -1.2286 0.4491 0 9
2.5032 -8.3889 -1.2404 0.6606 0 9
2.6824 -8.3074 -1.2369 0.6102 0 9
2.9212 -8.4002 -1.2601 0.2638 0 9
3.1520 -8.4503 -1.2779 0.4174 0 9
3.3538 -8.4122 -1.2832 0.5593 0 9
3.5944 -8.4612 -1.3025 0.2726 0 9
3.7537 -8.3147 -1.2926 0.6476 0 9
3.9900 -8.3363 -1.3095 0.4703 0 9
4.2514 -8.3955 -1.3334 0.3428 0 9
4.5538 -8.5150 -1.3682 0.9281 0 9
4.7759 -8.4696 -1.3777 0.2635 0 8
4.8731 -8.2079 -1.3525 0.7900 0 8
5.1132 -8.1896 -1.3680 0.8730 0 8
5.3304 -8.1273 -1.3771 0.2924 0 8
5.4248 -7.8814 -1.3557 0.2971 0 8
5.5120 -7.6370 -1.3345 0.2881 0 7
5.5903 -7.3916 -1.3131 0.2928 0 7
5.6648 -7.1521 -1.2927 0.2974 0 7
5.7358 -6.9183 -1.2733 0.3019 0 7
5.8034 -6.6899 -1.2548 0.3064 0 7
5.8679 -6.4664 -1.2372 0.3107 0 7
5.9293 -6.2477 -1.2204 0.3150 0 7
5.9879 -6.0335 -1.2044 0.3192 0 7
6.0437 -5.8235 -1.1892 0.3233 0 7
6.0969 -5.6175 -1.1746 0.3273 0 7
6.1475 -5.4153 -1.1608 0.3312 0 7
6.1958 -5.2166 -1.1476 0.3350 0 6
6.2417 -5.0213 -1.1350 0.3387 0 7
6.2855 -4.8292 -1.1231 0.3423 0 7
6.3271 -4.6400 -1.1117 0.3458 0 7
6.3666 -4.4538 -1.1009 0.3492 0 7
6.4042 -4.2702 -1.0906 0.3525 0 7
6.4399 -4.0891 -1.0809 0.3557 0 7
6.4738 -3.9104 -1.0716 0.3588 0 7
6.5059 -3.7340 -1.0628 0.3617 0 7
6.5362 -3.5596 -1.0545 0.3646 0 7
6.5649 -3.3873 -1.0467 0.3673 0 7
6.5920 -3.2169 -1.0393 0.3699 0 7
6.6175 -3.0482 -1.0323 0.3724 0 7
6.6415 -2.8811 -1.0258 0.3748 0 7
6.6640 -2.7156 -1.0196 0.3771 0 7
6.6851 -2.5515 -1.0139 0.3792 0 7
6.7047 -2.3888 -1.0085 0.3812 0 7
6.7230 -2.2273 -1.0035 0.3831 0 7
6.7399 -2.0670 -0.9989 0.3849 0 7
6.7555 -1.9077 -0.9946 0.3865 0 6
6.7698 -1.7494 -0.9907 0.3881 0 7
6.7828 -1.5919 -0.9872 0.3895 0 6
6.7945 -1.4353 -0.9840 0.3907 0 7
6.8050 -1.2794 -0.9811 0.3919 0 7
4.4200 -0.7292 -0.6347 0.2467 24 10
4.2318 -0.6013 -0.6056 0.3920 24 10
4.1433 -0.4946 -0.5912 0.4844 24 10
4.1141 -0.3981 -0.5856 0.5537 24 10
4.0872 -0.3035 -0.5807 0.5631 24 10
4.0688 -0.2108 -0.5773 0.5793 24 10
4.0600 -0.1195 -0.5755 0.5811 24 10
4.0567 -0.0287 -0.5748 0.5994 24 10
4.0578 0.0620 -0.5750 0.5992 24 10
4.0633 0.1529 -0.5761 0.5805 24 10
4.0719 0.2445 -0.5780 0.5786 24 10
4.0969 0.3380 -0.5825 0.5614 24 10
4.1243 0.4333 -0.5876 0.5519 24 10
4.1726 0.5328 -0.5960 0.4805 24 10
4.2785 0.6438 -0.6130 0.3872 24 10
4.5298 0.7855 -0.6514 0.2404 24 10
6.8013 1.3366 -0.9821 0.3915 0 7
6.7903 1.4928 -0.9851 0.3903 0 7
6.7781 1.6497 -0.9884 0.3890 0 7
6.7647 1.8074 -0.9921 0.3875 0 6
6.7499 1.9661 -0.9961 0.3860 0 7
6.7339 2.1258 -1.0005 0.3843 0 7
6.7165 2.2865 -1.0053 0.3824 0 7
6.6977 2.4485 -1.0104 0.3805 0 7
6.6775 2.6117 -1.0159 0.3784 0 7
6.6559 2.7763 -1.0218 0.3763 0 7
6.6329 2.9423 -1.0281 0.3739 0 7
6.6083 3.1100 -1.0348 0.3715 0 7
6.5822 3.2793 -1.0420 0.3690 0 7
6.5546 3.4504 -1.0495 0.3663 0 7
5.1848 2.8791 -0.8403 0.3138 0 10
5.0266 2.9401 -0.8251 0.3517 0 10
4.6454 2.8583 -0.7728 0.5243 0 10
4.4533 2.8792 -0.7514 0.5445 0 10
4.2537 2.8869 -0.7284 0.5699 0 10
3.8304 2.7266 -0.6662 0.6360 0 10
3.9370 2.9372 -0.6960 0.1752 0 10
3.8432 3.0033 -0.6911 0.6847 0 10
3.6947 3.0226 -0.6764 0.7046 0 10
3.5533 3.0420 -0.6628 0.7146 0 10
3.4168 3.0600 -0.6499 0.7298 0 10
3.2853 3.0773 -0.6378 0.7422 0 10
3.1598 3.0951 -0.6267 0.7647 0 10
3.0395 3.1134 -0.6165 0.7862 0 10
2.9137 3.1211 -0.6050 0.7513 0 10
2.8159 3.1548 -0.5992 0.7167 0 10
2.7430 3.2149 -0.5988 0.4442 0 10
2.6869 3.2956 -0.6025 0.4018 0 10
2.6349 3.3835 -0.6076 0.3984 0 10
2.5816 3.4723 -0.6131 0.3950 0 10
2.5319 3.5694 -0.6201 0.3027 0 10
2.4945 3.6886 -0.6309 0.2974 0 10
2.4557 3.8121 -0.6425 0.2861 0 10
2.4160 3.9412 -0.6550 0.2806 0 10
2.3988 4.1169 -0.6751 0.2020 0 10
4.6839 8.4681 -1.3712 0.8694 0 1
4.4406 8.4698 -1.3550 0.8797 0 1
4.2028 8.4713 -1.3399 0.8897 0 1
3.9702 8.4729 -1.3258 0.8991 0 1
3.7423 8.4744 -1.3126 0.9082 0 1
3.5188 8.4759 -1.3003 0.9167 0 1
3.2993 8.4774 -1.2889 0.9248 0 1
3.0836 8.4788 -1.2783 0.9325 0 1
-0.8474 -9.8189 -1.6236 0.9839 0 19
-0.6268 -9.8204 -1.6211 0.9854 0 19
-0.4068 -9.8219 -1.6194 0.9864 0 19
-0.1871 -9.8234 -1.6186 0.9869 0 19
0.0324 -9.8249 -1.6186 0.9870 0 19
0.2521 -9.8264 -1.6193 0.9865 0 19
0.4157 -8.6539 -1.4273 0.1558 0 9
0.6226 -8.8372 -1.4594 0.4519 0 9
0.7913 -8.5132 -1.4085 0.6226 0 9
0.9913 -8.5794 -1.4228 0.9855 0 9
1.1779 -8.5200 -1.4169 0.6666 0 9
1.3546 -8.4084 -1.4031 0.2851 0 9
1.5308 -8.3147 -1.3928 0.2226 0 9
1.7190 -8.2916 -1.3950 0.3368 0 9
1.9597 -8.4932 -1.4359 0.3813 0 9
2.1206 -8.3358 -1.4170 0.4232 0 9
2.3479 -8.4356 -1.4425 0.4060 0 9
2.5696 -8.4927 -1.4617 0.8288 0 9
2.7229 -8.3237 -1.4427 0.6028 0 9
2.9259 -8.3110 -1.4515 0.2969 0 9
3.1411 -8.3237 -1.4656 0.7293 0 9
3.3645 -8.3463 -1.4825 0.4724 0 9
3.6495 -8.5003 -1.5239 0.5651 0 9
3.8461 -8.4333 -1.5269 0.8619 0 9
4.1159 -8.5155 -1.5581 0.2700 0 8
4.2237 -8.2621 -1.5286 0.2752 0 8
4.4203 -8.1898 -1.5332 0.9025 0 8
4.6521 -8.1768 -1.5498 0.8928 0 8
4.7760 -7.9745 -1.5313 0.3047 0 8
4.8769 -7.7449 -1.5078 0.3095 0 8
4.9672 -7.5107 -1.4834 0.3003 0 7
5.0528 -7.2811 -1.4600 0.3051 0 7
5.1345 -7.0568 -1.4377 0.3099 0 7
5.2124 -6.8375 -1.4164 0.3145 0 7
5.2869 -6.6228 -1.3960 0.3191 0 7
5.3579 -6.4125 -1.3766 0.3236 0 7
5.4258 -6.2064 -1.3581 0.3280 0 7
5.4906 -6.0043 -1.3404 0.3324 0 7
5.5524 -5.8059 -1.3234 0.3366 0 7
5.6115 -5.6112 -1.3073 0.3408 0 7
5.6679 -5.4197 -1.2919 0.3448 0 7
5.7217 -5.2315 -1.2772 0.3488 0 6
5.7730 -5.0463 -1.2632 0.3527 0 7
5.8220 -4.8639 -1.2498 0.3564 0 7
5.8686 -4.6843 -1.2370 0.3601 0 7
5.9131 -4.5072 -1.2249 0.3637 0 7
5.9555 -4.3326 -1.2133 0.3672 0 7
5.9959 -4.1603 -1.2022 0.3705 0 7
6.0342 -3.9902 -1.1918 0.3738 0 7
6.0707 -3.8221 -1.1818 0.3769 0 7
6.1053 -3.6560 -1.1723 0.3800 0 7
6.1381 -3.4918 -1.1634 0.3829 0 7
6.1692 -3.3292 -1.1549 0.3857 0 7
6.1986 -3.1683 -1.1468 0.3884 0 7
6.2264 -3.0090 -1.1392 0.3910 0 7
6.2526 -2.8511 -1.1321 0.3935 0 7
6.2772 -2.6946 -1.1253 0.3959 0 7
6.3003 -2.5393 -1.1190 0.3981 0 7
6.3219 -2.3852 -1.1131 0.4002 0 7
6.3421 -2.2323 -1.1076 0.4022 0 7
6.3608 -2.0804 -1.1025 0.4041 0 7
6.3781 -1.9294 -1.0978 0.4058 0 7
6.3941 -1.7793 -1.0934 0.4074 0 7
6.4088 -1.6300 -1.0894 0.4089 0 6
6.4221 -1.4814 -1.0857 0.4103 0 7
6.4341 -1.3335 -1.0825 0.4115 0 7
4.4671 -0.8222 -0.7483 0.3584 24 10
4.1845 -0.6738 -0.6982 0.2177 24 10
4.0555 -0.5604 -0.6744 0.4920 24 10
3.9927 -0.4611 -0.6621 0.5675 24 10
3.9679 -0.3686 -0.6565 0.5771 24 10
3.9436 -0.2776 -0.6513 0.5817 24 10
3.9305 -0.1885 -0.6483 0.5977 24 10
3.9279 -0.1005 -0.6473 0.6167 24 10
3.9252 -0.0127 -0.6466 0.6173 24 10
3.9272 0.0750 -0.6471 0.6169 24 10
3.9295 0.1630 -0.6479 0.6161 24 10
3.9366 0.2515 -0.6498 0.5830 24 10
3.9609 0.3421 -0.6549 0.5785 24 10
3.9852 0.4341 -0.6604 0.5690 24 10
4.0337 0.5308 -0.6702 0.4951 24 10
4.1152 0.6354 -0.6860 0.4010 24 10
4.4054 0.7813 -0.7371 0.3638 24 10
6.4373 1.2907 -1.0816 0.4119 0 7
6.4257 1.4384 -1.0848 0.4107 0 7
6.4128 1.5868 -1.0883 0.4093 0 7
6.3985 1.7359 -1.0922 0.4079 0 6
6.3829 1.8857 -1.0964 0.4063 0 7
6.3660 2.0365 -1.1011 0.4046 0 7
6.3476 2.1881 -1.1061 0.4027 0 7
6.3279 2.3408 -1.1115 0.4008 0 7
6.3067 2.4945 -1.1173 0.3987 0 7
6.2840 2.6494 -1.1235 0.3965 0 7
6.2599 2.8056 -1.1301 0.3942 0 7
6.2342 2.9631 -1.1371 0.3918 0 7
6.2069 3.1220 -1.1446 0.3892 0 7
6.1779 3.2824 -1.1525 0.3865 0 7
5.1576 2.8899 -0.9739 0.7009 0 10
4.9462 2.9185 -0.9461 0.2775 0 10
4.6303 2.8735 -0.8977 0.8495 0 10
4.3974 2.8670 -0.8648 0.4538 0 10
4.1783 2.8593 -0.8341 0.5707 0 10
4.0089 2.8769 -0.8129 0.6392 0 10
3.8547 2.8989 -0.7946 0.6260 0 10
3.7387 2.9447 -0.7840 0.6244 0 10
3.6171 2.9823 -0.7723 0.6794 0 10
3.4896 3.0106 -0.7592 0.7227 0 10
3.3562 3.0289 -0.7448 0.7379 0 10
3.2279 3.0468 -0.7312 0.7594 0 10
3.1046 3.0645 -0.7186 0.7815 0 10
2.9776 3.0735 -0.7050 0.7767 0 10
2.8628 3.0903 -0.6940 0.8077 0 10
2.7554 3.1109 -0.6846 0.8094 0 10
2.6491 3.1291 -0.6754 0.6422 0 10
2.5624 3.1676 -0.6712 0.6496 0 10
2.4964 3.2310 -0.6726 0.4810 0 10
2.4381 3.3057 -0.6767 0.4147 0 10
2.3870 3.3925 -0.6834 0.4397 0 10
2.3348 3.4810 -0.6905 0.4455 0 10
2.2879 3.5817 -0.7002 0.3439 0 10
2.2507 3.7032 -0.7139 0.3376 0 10
2.2190 3.8420 -0.7309 0.3475 0 10
2.1845 3.9854 -0.7487 0.3396 0 10
2.1756 4.1885 -0.7775 0.2406 0 10
4.1477 8.4412 -1.5494 0.2715 0 8
3.9310 8.4736 -1.5388 0.8976 0 1
3.7039 8.4751 -1.5237 0.9065 0 1
3.4811 8.4766 -1.5096 0.9149 0 1
3.2623 8.4780 -1.4965 0.9230 0 1
3.0471 8.4795 -1.4844 0.9305 0 1
2.8353 8.4809 -1.4731 0.9376 0 1
2.6266 8.4823 -1.4628 0.9442 0 1
2.4206 8.4837 -1.4534 0.9503 0 1
2.2238 8.5102 -1.4490 0.9560 0 1
2.0375 8.5762 -1.4522 0.9612 0 1
1.8363 8.5775 -1.4451 0.9659 0 1
1.6371 8.5789 -1.4388 0.9701 0 1
1.4554 8.6758 -1.4492 0.1998 0 1
1.2721 8.7814 -1.4617 0.9771 0 1
1.0786 8.8327 -1.4659 0.9799 0 1
0.8740 8.7841 -1.4542 0.9822 0 1
0.6801 8.8354 -1.4598 0.9840 0 1
0.4819 8.8368 -1.4579 0.9853 0 1
0.2841 8.8381 -1.4567 0.9861 0 1
0.0865 8.8394 -1.4563 0.9864 0 1
-0.1111 8.8408 -1.4565 0.9862 0 1
-0.3088 8.8421 -1.4575 0.9855 0 1
-0.5069 8.8435 -1.4593 0.9844 0 1
-0.7055 8.8448 -1.4617 0.9827 0 1
-0.9017 8.8144 -1.4597 0.9806 0 1
-1.1014 8.8158 -1.4636 0.9779 0 1
-1.2996 8.7989 -1.4652 0.9748 0 1
-1.5049 8.8204 -1.4741 0.9712 0 1
-1.7088 8.8218 -1.4803 0.9671 0 1
-1.9146 8.8232 -1.4874 0.9625 0 1
-2.1224 8.8246 -1.4952 0.9575 0 1
-2.3325 8.8260 -1.5039 0.9519 0 1
-2.5395 8.8074 -1.5100 0.9459 0 1
-2.6715 8.5434 -1.4746 0.9394 0 1
-2.8831 8.5449 -1.4856 0.9324 0 1
-3.2124 8.8620 -1.5529 0.9250 0 1
-3.4389 8.8636 -1.5662 0.9171 0 1
-3.6695 8.8652 -1.5806 0.9088 0 1
-3.9045 8.8668 -1.5961 0.9000 0 1
-4.1442 8.8685 -1.6126 0.8908 0 1
-4.8320 5.4249 -1.1968 0.8279 0 9
-4.9244 5.2860 -1.1901 0.9988 0 9
-5.0701 5.2043 -1.1970 0.7072 0 9
-2.3297 -8.4612 -1.4458 0.9534 0 19
-2.3373 -9.2954 -1.5790 0.2682 0 19
-0.8852 -9.8186 -1.6241 0.9836 0 19
-0.6645 -9.8201 -1.6215 0.9852 0 19
-0.4444 -9.8216 -1.6197 0.9863 0 19
-0.2247 -9.8231 -1.6187 0.9869 0 19
-0.0051 -9.7750 -1.6103 0.9870 0 19
0.1902 -8.7167 -1.4363 0.9633 0 9
0.3779 -8.5504 -1.4100 0.9737 0 9
0.5932 -8.9055 -1.4703 0.4485 0 9
0.7622 -8.5555 -1.4150 0.6197 0 9
0.9581 -8.5800 -1.4222 0.9859 0 9
1.1432 -8.5086 -1.4143 0.6757 0 9
1.3243 -8.4259 -1.4051 0.2207 0 9
1.5009 -8.3311 -1.3946 0.2223 0 9
1.6877 -8.3004 -1.3954 0.1742 0 9
1.9338 -8.5301 -1.4409 0.4309 0 9
2.1040 -8.4052 -1.4274 0.4290 0 9
2.3188 -8.4563 -1.4445 0.5527 0 9
2.4843 -8.3256 -1.4313 0.2210 0 9
2.7023 -8.3691 -1.4488 0.6003 0 9
2.9318 -8.4306 -1.4704 0.1127 0 9
3.1119 -8.3429 -1.4669 0.7287 0 9
3.3539 -8.4127 -1.4920 0.4800 0 9
3.6186 -8.5182 -1.5247 0.2389 0 9
3.7692 -8.3492 -1.5091 0.6427 0 9
4.0796 -8.5236 -1.5567 0.8406 0 9
4.2056 -8.3050 -1.5336 0.2743 0 8
4.3811 -8.1920 -1.5304 0.9041 0 8
4.6121 -8.1790 -1.5469 0.8945 0 8
4.7583 -8.0143 -1.5354 0.3039 0 8
4.8599 -7.7839 -1.5117 0.3087 0 8
4.9521 -7.5505 -1.4875 0.2995 0 7
5.0384 -7.3201 -1.4639 0.3043 0 7
5.1207 -7.0949 -1.4414 0.3090 0 7
5.1993 -6.8747 -1.4200 0.3137 0 7
5.2744 -6.6592 -1.3994 0.3183 0 7
5.3460 -6.4482 -1.3799 0.3228 0 7
5.4144 -6.2414 -1.3612 0.3273 0 7
5.4797 -6.0386 -1.3433 0.3316 0 7
5.5420 -5.8396 -1.3263 0.3359 0 7
5.6016 -5.6443 -1.3100 0.3401 0 7
5.6584 -5.4522 -1.2945 0.3441 0 7
5.7126 -5.2635 -1.2797 0.3481 0 6
5.7644 -5.0778 -1.2655 0.3520 0 7
5.8137 -4.8949 -1.2520 0.3558 0 7
5.8608 -4.7149 -1.2392 0.3595 0 7
5.9057 -4.5374 -1.2269 0.3631 0 7
5.9484 -4.3624 -1.2152 0.3666 0 7
5.9891 -4.1897 -1.2041 0.3700 0 7
6.0278 -4.0192 -1.1935 0.3732 0 7
6.0646 -3.8508 -1.1835 0.3764 0 7
6.0995 -3.6843 -1.1739 0.3795 0 7
6.1326 -3.5198 -1.1649 0.3824 0 7
6.1640 -3.3570 -1.1563 0.3853 0 7
6.1937 -3.1958 -1.1482 0.3880 0 7
6.2218 -3.0362 -1.1405 0.3906 0 7
6.2482 -2.8781 -1.1333 0.3931 0 7
6.2731 -2.7213 -1.1265 0.3955 0 7
6.2964 -2.5658 -1.1201 0.3977 0 7
6.3183 -2.4115 -1.1141 0.3998 0 7
6.3387 -2.2584 -1.1085 0.4019 0 7
6.3577 -2.1063 -1.1033 0.4037 0 7
6.3753 -1.9552 -1.0985 0.4055 0 7
6.3915 -1.8049 -1.0941 0.4072 0 6
6.4063 -1.6555 -1.0900 0.4087 0 6
6.4199 -1.5068 -1.0863 0.4101 0 7
6.4321 -1.3588 -1.0830 0.4113 0 7
4.5066 -0.8473 -0.7554 0.0167 24 10
4.2458 -0.7004 -0.7089 0.2144 24 10
4.0684 -0.5781 -0.6770 0.4902 24 10
3.9971 -0.4771 -0.6632 0.5666 24 10
3.9721 -0.3843 -0.6574 0.5763 24 10
3.9478 -0.2931 -0.6521 0.5810 24 10
3.9319 -0.2037 -0.6486 0.5974 24 10
3.9283 -0.1156 -0.6474 0.6166 24 10
3.9257 -0.0277 -0.6467 0.6172 24 10
3.9267 0.0600 -0.6470 0.6170 24 10
3.9292 0.1479 -0.6477 0.6163 24 10
3.9348 0.2363 -0.6494 0.5967 24 10
3.9567 0.3265 -0.6540 0.5793 24 10
3.9810 0.4182 -0.6594 0.5745 24 10
4.0209 0.5135 -0.6678 0.4969 24 10
4.0965 0.6164 -0.6824 0.4863 24 10
4.3698 0.7578 -0.7306 0.3670 24 10
6.4392 1.2655 -1.0811 0.4121 0 7
6.4278 1.4131 -1.0842 0.4109 0 7
6.4151 1.5613 -1.0877 0.4096 0 7
6.4011 1.7103 -1.0915 0.4081 0 6
6.3857 1.8600 -1.0957 0.4066 0 7
6.3690 2.0106 -1.1003 0.4049 0 7
6.3509 2.1621 -1.1052 0.4031 0 7
6.3314 2.3146 -1.1105 0.4011 0 7
6.3104 2.4681 -1.1163 0.3991 0 7
6.2880 2.6228 -1.1224 0.3969 0 7
6.2641 2.7787 -1.1289 0.3946 0 7
6.2387 2.9360 -1.1359 0.3922 0 7
6.2116 3.0947 -1.1433 0.3896 0 7
6.1830 3.2548 -1.1511 0.3870 0 7
5.1569 2.8636 -0.9717 0.7024 0 10
4.8849 2.8572 -0.9323 0.8560 0 10
4.6556 2.8646 -0.9005 0.5225 0 10
4.4372 2.8688 -0.8705 0.5462 0 10
4.2119 2.8586 -0.8386 0.5677 0 10
4.0383 2.8746 -0.8166 0.6298 0 10
3.8749 2.8910 -0.7964 0.6245 0 10
3.7581 2.9368 -0.7857 0.6221 0 10
3.6383 2.9764 -0.7744 0.6873 0 10
3.5129 3.0074 -0.7618 0.7203 0 10
3.3786 3.0258 -0.7472 0.7355 0 10
3.2493 3.0436 -0.7334 0.7571 0 10
3.1252 3.0612 -0.7207 0.7614 0 10
2.9978 3.0706 -0.7070 0.7745 0 10
2.8819 3.0871 -0.6957 0.8057 0 10
2.7742 3.1081 -0.6863 0.8074 0 10
2.6645 3.1230 -0.6763 0.7977 0 10
2.5768 3.1605 -0.6718 0.7394 0 10
2.5067 3.2188 -0.6721 0.4814 0 10
2.4471 3.2915 -0.6757 0.4151 0 10
2.3955 3.3771 -0.6821 0.4405 0 10
2.3439 3.4659 -0.6893 0.4319 0 10
2.2942 3.5614 -0.6979 0.3450 0 10
2.2571 3.6820 -0.7115 0.3388 0 10
2.2250 3.8186 -0.7281 0.3488 0 10
2.1902 3.9597 -0.7455 0.3410 0 10
2.1765 4.1514 -0.7722 0.2422 0 10
4.1663 8.3977 -1.5443 0.2724 0 8
3.9704 8.4733 -1.5415 0.8960 0 1
3.7425 8.4748 -1.5262 0.9050 0 1
3.5190 8.4763 -1.5119 0.9135 0 1
3.2995 8.4778 -1.4987 0.9216 0 1
3.0837 8.4792 -1.4864 0.9292 0 1
-0.3575 -8.6326 -1.6240 0.2624 0 9
-0.1653 -8.6789 -1.6316 0.7647 0 9
0.0279 -8.4523 -1.5887 0.8440 0 9
0.2211 -8.6203 -1.6208 0.8829 0 9
0.4103 -8.5426 -1.6075 0.9705 0 9
0.6102 -8.6602 -1.6318 0.3376 0 9
0.7830 -8.4232 -1.5901 0.4170 0 9
0.9751 -8.4394 -1.5968 0.5887 0 9
1.1539 -8.3464 -1.5837 0.6135 0 9
1.3492 -8.3753 -1.5945 0.3410 0 9
1.5445 -8.3890 -1.6033 0.5687 0 9
1.7510 -8.4459 -1.6213 0.8207 0 9
1.9470 -8.4384 -1.6278 0.7178 0 9
2.1263 -8.3583 -1.6211 0.4962 0 9
2.3434 -8.4197 -1.6427 0.6056 0 9
2.5247 -8.3443 -1.6386 0.2194 0 9
2.7584 -8.4323 -1.6676 0.5791 0 9
2.9576 -8.4011 -1.6741 0.1251 0 9
3.1762 -8.4167 -1.6909 0.0452 0 9
3.4357 -8.5227 -1.7272 0.9182 0 9
3.5786 -8.3351 -1.7050 0.2804 0 8
3.7355 -8.1908 -1.6921 0.9293 0 8
3.9530 -8.1786 -1.7074 0.9210 0 8
4.1307 -8.0803 -1.7057 0.3109 0 8
4.2427 -7.8608 -1.6790 0.3158 0 8
4.3480 -7.6422 -1.6527 0.3063 0 7
4.4451 -7.4220 -1.6261 0.3113 0 7
4.5379 -7.2066 -1.6007 0.3163 0 7
4.6266 -6.9958 -1.5765 0.3211 0 7
4.7115 -6.7893 -1.5533 0.3259 0 7
4.7926 -6.5870 -1.5311 0.3306 0 7
4.8702 -6.3885 -1.5099 0.3353 0 7
4.9444 -6.1938 -1.4896 0.3398 0 7
5.0154 -6.0025 -1.4702 0.3443 0 7
5.0833 -5.8146 -1.4517 0.3487 0 7
5.1482 -5.6299 -1.4339 0.3531 0 7
5.2103 -5.4482 -1.4170 0.3573 0 7
5.2697 -5.2694 -1.4007 0.3614 0 6
5.3264 -5.0933 -1.3852 0.3655 0 7
5.3807 -4.9197 -1.3704 0.3694 0 7
5.4325 -4.7487 -1.3562 0.3733 0 7
5.4820 -4.5799 -1.3427 0.3770 0 7
5.5293 -4.4134 -1.3298 0.3807 0 7
5.5744 -4.2490 -1.3174 0.3843 0 7
5.6174 -4.0866 -1.3057 0.3877 0 7
5.6583 -3.9261 -1.2945 0.3911 0 7
5.6973 -3.7674 -1.2838 0.3943 0 7
5.7345 -3.6104 -1.2737 0.3975 0 7
5.7697 -3.4551 -1.2641 0.4005 0 7
5.8032 -3.3012 -1.2549 0.4034 0 7
5.8349 -3.1488 -1.2462 0.4062 0 7
5.8649 -2.9978 -1.2380 0.4089 0 7
5.8933 -2.8480 -1.2303 0.4115 0 7
5.9201 -2.6995 -1.2230 0.4140 0 7
5.9452 -2.5521 -1.2161 0.4163 0 7
5.9689 -2.4058 -1.2096 0.4185 0 7
5.9910 -2.2604 -1.2036 0.4206 0 7
6.0117 -2.1160 -1.1979 0.4226 0 7
6.0309 -1.9725 -1.1927 0.4245 0 7
6.0487 -1.8297 -1.1878 0.4262 0 6
6.0651 -1.6877 -1.1833 0.4278 0 7
6.0801 -1.5464 -1.1792 0.4293 0 6
6.0938 -1.4057 -1.1755 0.4307 0 7
6.1061 -1.2655 -1.1721 0.4319 0 7
4.3340 -0.7977 -0.8283 0.2085 24 10
4.0323 -0.6494 -0.7677 0.6252 24 10
3.9402 -0.5445 -0.7476 0.6419 24 10
3.8745 -0.4474 -0.7331 0.9075 24 10
3.8461 -0.3573 -0.7260 0.9164 24 10
3.8181 -0.2688 -0.7194 0.9247 24 10
3.8061 -0.1826 -0.7162 0.6334 24 10
3.8041 -0.0974 -0.7153 0.6343 24 10
3.8016 -0.0123 -0.7146 0.6349 24 10
3.8034 0.0727 -0.7150 0.6345 24 10
3.8055 0.1578 -0.7159 0.6337 24 10
3.8110 0.2435 -0.7178 0.9561 24 10
3.8379 0.3314 -0.7241 0.9188 24 10
3.8662 0.4211 -0.7310 0.9101 24 10
3.9143 0.5151 -0.7421 0.6467 24 10
4.0051 0.6184 -0.7617 0.6301 24 10
4.2265 0.7496 -0.8068 0.2141 24 10
6.1095 1.2250 -1.1712 0.4323 0 7
6.0975 1.3650 -1.1745 0.4311 0 7
6.0842 1.5055 -1.1781 0.4297 0 7
6.0696 1.6466 -1.1821 0.4283 0 7
6.0536 1.7884 -1.1865 0.4267 0 6
6.0362 1.9310 -1.1912 0.4250 0 7
6.0174 2.0743 -1.1964 0.4232 0 7
5.9972 2.2184 -1.2019 0.4212 0 7
5.9755 2.3635 -1.2078 0.4191 0 7
5.9523 2.5095 -1.2142 0.4170 0 7
5.9275 2.6566 -1.2209 0.4146 0 7
5.9012 2.8048 -1.2281 0.4122 0 7
5.8733 2.9542 -1.2357 0.4097 0 7
5.8438 3.1049 -1.2438 0.4070 0 7
5.0923 2.8533 -1.0972 0.4859 0 10
4.8484 2.8608 -1.0581 0.8557 0 10
4.6029 2.8565 -1.0182 0.5235 0 10
4.3872 2.8603 -0.9844 0.5933 0 10
4.1671 2.8516 -0.9491 0.5396 0 10
3.9777 2.8545 -0.9202 0.6352 0 10
3.8147 2.8688 -0.8972 0.6503 0 10
3.6571 2.8805 -0.8750 0.6646 0 10
3.5269 2.9079 -0.8592 0.6578 0 10
3.4197 2.9503 -0.8489 0.6541 0 10
3.3110 2.9881 -0.8383 0.4116 0 10
3.1925 3.0133 -0.8251 0.7558 0 10
3.0622 3.0225 -0.8087 0.7695 0 10
2.9449 3.0397 -0.7955 0.8008 0 10
2.8363 3.0616 -0.7845 0.9011 0 10
2.7270 3.0789 -0.7731 0.8146 0 10
2.6203 3.0950 -0.7622 0.8262 0 10
2.5163 3.1105 -0.7520 0.8374 0 10
2.4253 3.1390 -0.7456 0.5529 0 10
2.3423 3.1758 -0.7417 0.6656 0 10
2.2826 3.2441 -0.7456 0.5174 0 10
2.2342 3.3311 -0.7539 0.4936 0 10
2.1859 3.4219 -0.7632 0.4915 0 10
2.1386 3.5188 -0.7740 0.4847 0 10
2.0975 3.6317 -0.7883 0.4061 0 10
2.0575 3.7536 -0.8046 0.4225 0 10
2.0269 3.9022 -0.8265 0.3623 0 10
2.0042 4.0789 -0.8542 0.2954 0 10
1.9793 4.2665 -0.8840 0.9000 0 10
3.6127 8.2663 -1.6956 0.2820 0 8
3.4813 8.4770 -1.7225 0.9113 0 1
3.2624 8.4784 -1.7075 0.9193 0 1
3.0473 8.4799 -1.6937 0.9268 0 1
2.8354 8.4813 -1.6809 0.9338 0 1
2.6267 8.4827 -1.6691 0.9404 0 1
2.4235 8.4937 -1.6602 0.2048 0 1
2.2239 8.5105 -1.6534 0.9522 0 1
2.0376 8.5766 -1.6569 0.9574 0 1
1.8364 8.5779 -1.6489 0.9620 0 1
1.6371 8.5793 -1.6417 0.9663 0 1
1.4395 8.5806 -1.6354 0.9700 0 1
1.2432 8.5819 -1.6299 0.9732 0 1
1.0482 8.5832 -1.6253 0.9760 0 1
0.8541 8.5846 -1.6215 0.9783 0 1
0.6763 8.7858 -1.6563 0.9800 0 1
0.4819 8.8370 -1.6635 0.1923 0 1
0.2841 8.8385 -1.6621 0.9821 0 1
0.0865 8.8398 -1.6616 0.9824 0 1
-0.1111 8.8412 -1.6619 0.9823 0 1
-0.3088 8.8425 -1.6631 0.9816 0 1
-0.5069 8.8439 -1.6650 0.9804 0 1
-0.7056 8.8452 -1.6678 0.9788 0 1
-0.9050 8.8466 -1.6715 0.9766 0 1
-1.1054 8.8479 -1.6760 0.9740 0 1
-1.2997 8.7993 -1.6719 0.9709 0 1
-1.5049 8.8208 -1.6819 0.9673 0 1
-1.7089 8.8222 -1.6890 0.9632 0 1
-1.9146 8.8236 -1.6971 0.9587 0 1
-2.1225 8.8250 -1.7061 0.9536 0 1
-2.3326 8.8265 -1.7160 0.9481 0 1
-2.4915 8.6412 -1.6904 0.3180 0 1
-2.6716 8.5438 -1.6826 0.9356 0 1
-2.8832 8.5453 -1.6951 0.9287 0 1
-3.2125 8.8624 -1.7719 0.9213 0 1
-3.4391 8.8640 -1.7871 0.9135 0 1
-3.6697 8.8656 -1.8035 0.9052 0 1
-3.9046 8.8672 -1.8211 0.8964 0 1
-4.1315 8.8412 -1.8343 0.4564 0 1
-4.7935 5.3818 -1.3546 0.8312 0 9
-4.9069 5.2673 -1.3531 0.9983 0 9
-5.0732 5.2074 -1.3665 0.6843 0 9
-2.3371 -8.4881 -1.6548 0.9496 0 19
-2.2858 -9.0906 -1.7619 0.2732 0 19
-0.5847 -8.6405 -1.6278 0.5642 0 9
-0.3917 -8.6564 -1.6287 0.9956 0 9
-0.1976 -8.6397 -1.6244 0.3186 0 9
-0.0045 -8.5794 -1.6126 0.1998 0 9
0.1869 -8.5648 -1.6102 0.8274 0 9
0.3775 -8.5405 -1.6068 0.4631 0 9
0.5782 -8.6797 -1.6351 0.8099 0 9
0.7564 -8.4896 -1.6020 0.9158 0 9
0.9372 -8.3923 -1.5872 0.2580 0 9
1.1235 -8.3619 -1.5858 0.6127 0 9
1.3112 -8.3423 -1.5873 0.3137 0 9
1.5195 -8.4343 -1.6108 0.5553 0 9
1.7199 -8.4586 -1.6224 0.3607 0 9
1.8830 -8.3060 -1.6008 0.3610 0 9
2.1081 -8.4214 -1.6317 0.4889 0 9
2.2798 -8.3141 -1.6204 0.5334 0 9
2.4981 -8.3721 -1.6422 0.7866 0 9
2.7000 -8.3618 -1.6516 0.5315 0 9
2.9278 -8.4193 -1.6755 0.4099 0 9
3.1536 -8.4547 -1.6961 0.1827 0 9
3.3568 -8.4199 -1.7038 0.5535 0 9
3.5582 -8.3760 -1.7105 0.2795 0 8
3.6986 -8.1928 -1.6896 0.9307 0 8
3.9155 -8.1807 -1.7047 0.9224 0 8
4.1111 -8.1184 -1.7104 0.3100 0 8
4.2239 -7.8981 -1.6835 0.3150 0 8
4.3309 -7.6804 -1.6573 0.3055 0 7
4.4288 -7.4594 -1.6306 0.3105 0 7
4.5223 -7.2432 -1.6050 0.3154 0 7
4.6117 -7.0316 -1.5806 0.3203 0 7
4.6972 -6.8244 -1.5572 0.3251 0 7
4.7790 -6.6213 -1.5349 0.3298 0 7
4.8571 -6.4222 -1.5135 0.3345 0 7
4.9319 -6.2268 -1.4930 0.3391 0 7
5.0034 -6.0350 -1.4735 0.3436 0 7
5.0719 -5.8466 -1.4548 0.3480 0 7
5.1373 -5.6613 -1.4369 0.3523 0 7
5.1999 -5.4791 -1.4198 0.3566 0 7
5.2597 -5.2998 -1.4035 0.3607 0 7
5.3169 -5.1232 -1.3878 0.3648 0 7
5.3716 -4.9493 -1.3729 0.3688 0 7
5.4238 -4.7778 -1.3586 0.3726 0 7
5.4737 -4.6087 -1.3450 0.3764 0 7
5.5214 -4.4418 -1.3319 0.3801 0 7
5.5668 -4.2770 -1.3195 0.3837 0 7
5.6102 -4.1143 -1.3077 0.3871 0 7
5.6515 -3.9535 -1.2964 0.3905 0 7
5.6908 -3.7945 -1.2856 0.3938 0 7
5.7282 -3.6372 -1.2754 0.3969 0 7
5.7638 -3.4815 -1.2657 0.4000 0 7
5.7976 -3.3274 -1.2564 0.4029 0 7
5.8296 -3.1748 -1.2477 0.4058 0 7
5.8599 -3.0235 -1.2394 0.4085 0 7
5.8886 -2.8736 -1.2316 0.4111 0 7
5.9156 -2.7248 -1.2242 0.4135 0 7
5.9410 -2.5772 -1.2172 0.4159 0 7
5.9649 -2.4307 -1.2107 0.4181 0 7
5.9873 -2.2852 -1.2046 0.4203 0 7
6.0083 -2.1407 -1.1989 0.4223 0 7
6.0277 -1.9970 -1.1935 0.4242 0 7
6.0458 -1.8541 -1.1886 0.4259 0 6
6.0624 -1.7120 -1.1841 0.4276 0 7
6.0777 -1.5705 -1.1799 0.4291 0 6
6.0916 -1.4297 -1.1761 0.4305 0 7
6.1041 -1.2895 -1.1727 0.4317 0 7
4.3817 -0.8238 -0.8380 0.3637 24 10
4.0693 -0.6713 -0.7752 0.2952 24 10
3.9556 -0.5621 -0.7510 0.6391 24 10
3.8794 -0.4630 -0.7343 0.9060 24 10
3.8509 -0.3726 -0.7272 0.9149 24 10
3.8229 -0.2838 -0.7205 0.9233 24 10
3.8064 -0.1972 -0.7164 0.6332 24 10
3.8045 -0.1119 -0.7154 0.6341 24 10
3.8021 -0.0269 -0.7147 0.6348 24 10
3.8030 0.0581 -0.7149 0.6346 24 10
3.8052 0.1432 -0.7157 0.6338 24 10
3.8087 0.2287 -0.7172 0.9569 24 10
3.8331 0.3162 -0.7229 0.9203 24 10
3.8613 0.4056 -0.7298 0.9117 24 10
3.8992 0.4979 -0.7388 0.6496 24 10
3.9892 0.6003 -0.7583 0.6329 24 10
4.1693 0.7230 -0.7954 0.2877 24 10
6.1114 1.2010 -1.1707 0.4324 0 7
6.0996 1.3410 -1.1739 0.4313 0 7
6.0866 1.4814 -1.1774 0.4300 0 7
6.0722 1.6224 -1.1814 0.4285 0 7
6.0564 1.7641 -1.1857 0.4270 0 6
6.0393 1.9065 -1.1904 0.4253 0 7
6.0207 2.0497 -1.1954 0.4235 0 7
6.0007 2.1937 -1.2009 0.4216 0 7
5.9793 2.3385 -1.2068 0.4195 0 7
5.9563 2.4844 -1.2130 0.4173 0 7
5.9319 2.6313 -1.2197 0.4151 0 7
5.9058 2.7794 -1.2268 0.4126 0 7
5.8782 2.9285 -1.2344 0.4101 0 7
5.8490 3.0790 -1.2424 0.4075 0 7
5.2113 2.8938 -1.1204 0.7854 0 10
4.9060 2.8695 -1.0683 0.7838 0 10
4.6420 2.8562 -1.0244 0.5203 0 10
4.4235 2.8600 -0.9901 0.5365 0 10
4.2024 2.8522 -0.9546 0.5365 0 10
4.0062 2.8518 -0.9243 0.6527 0 10
3.8423 2.8666 -0.9011 0.6595 0 10
3.6836 2.8786 -0.8787 0.6616 0 10
3.5457 2.9007 -0.8611 0.6563 0 10
3.4377 2.9430 -0.8506 0.6528 0 10
3.3281 2.9806 -0.8397 0.6989 0 10
3.2138 3.0103 -0.8277 0.7535 0 10
3.0917 3.0284 -0.8134 0.7846 0 10
2.9646 3.0366 -0.7977 0.7786 0 10
2.8524 3.0554 -0.7857 0.8003 0 10
2.7456 3.0760 -0.7750 0.8126 0 10
2.6383 3.0923 -0.7640 0.8243 0 10
2.5339 3.1079 -0.7537 0.8355 0 10
2.4374 3.1298 -0.7456 0.6605 0 10
2.3544 3.1668 -0.7417 0.6656 0 10
2.2920 3.2312 -0.7446 0.5181 0 10
2.2424 3.3159 -0.7524 0.4946 0 10
2.1939 3.4057 -0.7615 0.4887 0 10
2.1468 3.5021 -0.7721 0.4859 0 10
2.1043 3.6114 -0.7856 0.4075 0 10
2.0641 3.7318 -0.8016 0.3994 0 10
2.0320 3.8758 -0.8225 0.3641 0 10
2.0066 4.0447 -0.8487 0.2973 0 10
1.9852 4.2366 -0.8794 0.3001 0 10
3.6326 8.2259 -1.6902 0.2829 0 8
3.5140 8.4643 -1.7226 0.2775 0 8
3.2996 8.4782 -1.7100 0.9179 0 1
3.0838 8.4796 -1.6960 0.9255 0 1
-1.5591 -8.7939 -1.8878 0.9391 0 9
-1.1350 -8.6293 -1.8398 0.4144 0 9
-0.9326 -8.5674 -1.8217 0.9566 0 9
-0.7501 -8.6920 -1.8441 0.3362 0 9
-0.5453 -8.5436 -1.8096 0.3139 0 9
-0.3526 -8.5136 -1.8011 0.4414 0 9
-0.1645 -8.6364 -1.8259 0.2927 0 9
0.0281 -8.5128 -1.7994 0.8343 0 9
0.2126 -8.2857 -1.7520 0.2691 0 9
0.3976 -8.2784 -1.7519 0.3796 0 9
0.5913 -8.3924 -1.7784 0.2430 0 9
0.7807 -8.3988 -1.7830 0.4502 0 9
0.9836 -8.5127 -1.8114 0.7818 0 9
1.1510 -8.3254 -1.7766 0.3848 0 9
1.3455 -8.3519 -1.7882 0.3822 0 9
1.5398 -8.3634 -1.7976 0.8068 0 9
1.7490 -8.4364 -1.8212 0.7314 0 9
1.9209 -8.3252 -1.8060 0.3583 0 9
2.1542 -8.4678 -1.8469 0.4116 0 9
2.3640 -8.4934 -1.8636 0.2572 0 9
2.5527 -8.4369 -1.8632 0.7761 0 9
2.7845 -8.5121 -1.8931 0.8006 0 9
2.9488 -8.3763 -1.8771 0.2852 0 8
3.0907 -8.1902 -1.8504 0.9514 0 8
3.2970 -8.1788 -1.8640 0.9444 0 8
3.5018 -8.1563 -1.8763 0.3164 0 8
3.6245 -7.9474 -1.8464 0.3215 0 8
3.7423 -7.7427 -1.8178 0.3266 0 8
3.8512 -7.5335 -1.7884 0.3169 0 7
3.9549 -7.3275 -1.7601 0.3220 0 7
4.0541 -7.1258 -1.7330 0.3271 0 7
4.1492 -6.9279 -1.7070 0.3320 0 7
4.2402 -6.7339 -1.6821 0.3369 0 7
4.3275 -6.5434 -1.6583 0.3418 0 7
4.4110 -6.3563 -1.6354 0.3466 0 7
4.4910 -6.1725 -1.6136 0.3513 0 7
4.5677 -5.9917 -1.5926 0.3559 0 7
4.6412 -5.8139 -1.5725 0.3604 0 7
4.7116 -5.6389 -1.5533 0.3649 0 7
4.7790 -5.4666 -1.5348 0.3693 0 7
4.8436 -5.2968 -1.5172 0.3736 0 7
4.9055 -5.1295 -1.5003 0.3778 0 7
4.9647 -4.9644 -1.4841 0.3819 0 7
5.0214 -4.8016 -1.4686 0.3859 0 7
5.0757 -4.6408 -1.4538 0.3899 0 7
5.1276 -4.4821 -1.4396 0.3937 0 7
5.1772 -4.3252 -1.4260 0.3975 0 7
5.2246 -4.1702 -1.4130 0.4011 0 7
5.2699 -4.0169 -1.4007 0.4046 0 7
5.3131 -3.8653 -1.3888 0.4081 0 7
5.3544 -3.7152 -1.3776 0.4114 0 7
5.3937 -3.5666 -1.3668 0.4147 0 7
5.4311 -3.4194 -1.3566 0.4178 0 7
5.4667 -3.2736 -1.3469 0.4208 0 7
5.5005 -3.1290 -1.3377 0.4237 0 7
5.5325 -2.9856 -1.3289 0.4265 0 7
5.5629 -2.8434 -1.3206 0.4292 0 7
5.5916 -2.7022 -1.3127 0.4317 0 7
5.6187 -2.5621 -1.3053 0.4342 0 7
5.6442 -2.4229 -1.2984 0.4365 0 7
5.6682 -2.2846 -1.2918 0.4387 0 7
5.6907 -2.1471 -1.2857 0.4408 0 7
5.7116 -2.0104 -1.2799 0.4428 0 7
5.7311 -1.8744 -1.2746 0.4447 0 6
5.7492 -1.7391 -1.2697 0.4464 0 7
5.7659 -1.6044 -1.2651 0.4480 0 6
5.7812 -1.4703 -1.2609 0.4495 0 7
5.7951 -1.3368 -1.2571 0.4508 0 7
5.8076 -1.2037 -1.2537 0.4521 0 7
4.2023 -0.7734 -0.9032 0.2837 24 10
3.9969 -0.6437 -0.8557 0.6279 24 10
3.9192 -0.5416 -0.8363 0.7494 24 10
3.8657 -0.4464 -0.8226 0.9055 24 10
3.8374 -0.3565 -0.8147 0.9143 24 10
3.8165 -0.2687 -0.8087 0.9510 24 10
3.8032 -0.1824 -0.8048 0.9546 24 10
3.7899 -0.0970 -0.8014 0.9588 24 10
3.7805 -0.0123 -0.7991 0.9542 24 10
3.7861 0.0723 -0.8004 0.9599 24 10
3.7993 0.1576 -0.8038 0.9559 24 10
3.8127 0.2436 -0.8076 0.9524 24 10
3.8293 0.3307 -0.8125 0.9168 24 10
3.8574 0.4202 -0.8202 0.9081 24 10
3.9010 0.5133 -0.8317 0.7535 24 10
3.9701 0.6130 -0.8492 0.6327 24 10
4.1216 0.7310 -0.8848 0.2895 24 10
5.8110 1.1651 -1.2528 0.4524 0 7
5.7988 1.2981 -1.2561 0.4512 0 7
5.7853 1.4315 -1.2598 0.4499 0 7
5.7705 1.5655 -1.2638 0.4484 0 7
5.7542 1.7000 -1.2683 0.4469 0 7
5.7365 1.8351 -1.2731 0.4452 0 7
5.7174 1.9709 -1.2783 0.4434 0 7
5.6969 2.1073 -1.2840 0.4414 0 7
5.6749 2.2446 -1.2900 0.4394 0 7
5.6513 2.3827 -1.2964 0.4372 0 7
5.6263 2.5216 -1.3033 0.4349 0 7
5.5996 2.6615 -1.3105 0.4325 0 7
5.5714 2.8023 -1.3183 0.4299 0 7
5.5415 2.9443 -1.3264 0.4273 0 7
5.0928 2.8536 -1.2340 0.4836 0 10
4.8970 2.8895 -1.2019 0.5025 0 10
4.6032 2.8567 -1.1452 0.5211 0 10
4.3832 2.8578 -1.1060 0.5492 0 10
4.1753 2.8572 -1.0694 0.5090 0 10
3.9751 2.8527 -1.0342 0.5693 0 10
3.7929 2.8524 -1.0032 0.5928 0 10
3.6341 2.8623 -0.9778 0.6749 0 10
3.4845 2.8730 -0.9546 0.6754 0 10
3.3478 2.8883 -0.9346 0.8916 0 10
3.2330 2.9178 -0.9205 0.5809 0 10
3.1283 2.9527 -0.9093 0.7111 0 10
3.0279 2.9887 -0.8993 0.7747 0 10
2.9148 3.0086 -0.8855 0.8050 0 10
2.8081 3.0311 -0.8734 0.8172 0 10
2.7008 3.0493 -0.8610 0.8266 0 10
2.5957 3.0660 -0.8492 0.8382 0 10
2.4934 3.0822 -0.8380 0.8493 0 10
2.3927 3.0968 -0.8272 0.8483 0 10
2.2903 3.1052 -0.8156 0.8653 0 10
2.2143 3.1471 -0.8134 0.8026 0 10
2.1474 3.2016 -0.8149 0.5737 0 10
2.0931 3.2768 -0.8219 0.5730 0 10
2.0504 3.3738 -0.8345 0.5142 0 10
2.0070 3.4750 -0.8482 0.5059 0 10
1.9647 3.5844 -0.8640 0.4348 0 10
1.9262 3.7084 -0.8833 0.4304 0 10
1.8915 3.8496 -0.9066 0.3588 0 10
1.8600 4.0093 -0.9342 0.3492 0 10
1.8317 4.1912 -0.9668 0.3139 0 10
3.2336 7.8738 -1.7993 0.2975 0 8
3.1129 8.0898 -1.8322 0.2921 0 8
2.9866 8.3110 -1.8668 0.2867 0 8
2.8356 8.4817 -1.8904 0.9296 0 1
2.6268 8.4830 -1.8771 0.9362 0 1
2.4280 8.5096 -1.8705 0.9422 0 1
2.2240 8.5109 -1.8594 0.9479 0 1
2.0377 8.5770 -1.8635 0.9530 0 1
1.8365 8.5783 -1.8544 0.9577 0 1
1.6372 8.5796 -1.8463 0.9619 0 1
1.4395 8.5810 -1.8392 0.9656 0 1
1.2433 8.5823 -1.8331 0.9688 0 1
1.0482 8.5836 -1.8279 0.9716 0 1
0.8542 8.5849 -1.8236 0.9738 0 1
0.6609 8.5862 -1.8203 0.9756 0 1
0.4683 8.5875 -1.8179 0.9769 0 1
0.2761 8.5888 -1.8164 0.9777 0 1
0.0844 8.6283 -1.8239 0.2020 0 1
-0.1104 8.7915 -1.8585 0.9778 0 1
-0.3088 8.8429 -1.8704 0.9771 0 1
-0.5069 8.8442 -1.8726 0.9760 0 1
-0.7056 8.8456 -1.8757 0.9743 0 1
-0.9051 8.8470 -1.8798 0.9722 0 1
-1.1055 8.8483 -1.8849 0.9696 0 1
-1.3071 8.8497 -1.8909 0.9665 0 1
-1.5101 8.8511 -1.8980 0.9629 0 1
-1.7148 8.8525 -1.9060 0.9589 0 1
-1.9212 8.8539 -1.9151 0.9543 0 1
-2.1226 8.8254 -1.9187 0.9493 0 1
-2.3407 8.8568 -1.9364 0.9438 0 1
-2.4632 8.5428 -1.8793 0.9378 0 1
-2.6718 8.5442 -1.8923 0.9314 0 1
-2.8834 8.5457 -1.9064 0.9245 0 1
-3.2127 8.8628 -1.9927 0.9171 0 1
-3.4392 8.8644 -2.0098 0.9093 0 1
-3.6698 8.8660 -2.0283 0.9011 0 1
-3.9048 8.8676 -2.0481 0.8923 0 1
-4.1211 8.8191 -2.0577 0.8832 0 1
-4.7142 5.5371 -1.5372 0.8185 0 9
-4.7736 5.3595 -1.5171 0.9927 0 9
-4.8964 5.2560 -1.5184 0.9916 0 9
-5.0840 5.2185 -1.5400 0.6524 0 9
-2.3295 -8.4605 -1.8549 0.9454 0 19
-2.2361 -8.8931 -1.9383 0.2780 0 19
-1.5875 -8.7590 -1.8816 0.3779 0 9
-1.3701 -8.6576 -1.8528 0.6642 0 9
-1.1667 -8.6156 -1.8378 0.3477 0 9
-0.9616 -8.5297 -1.8144 0.5242 0 9
-0.7821 -8.6748 -1.8411 0.3915 0 9
-0.5780 -8.5420 -1.8097 0.1443 0 9
-0.3848 -8.5049 -1.7996 0.4418 0 9
-0.1975 -8.6341 -1.8256 0.5259 0 9
-0.0046 -8.7216 -1.8436 0.7973 0 9
0.1811 -8.2966 -1.7542 0.2688 0 9
0.3639 -8.2341 -1.7422 0.1090 0 9
0.5539 -8.3151 -1.7615 0.2453 0 9
0.7442 -8.3531 -1.7727 0.4528 0 9
0.9462 -8.4737 -1.8023 0.6937 0 9
1.1175 -8.3175 -1.7739 0.5933 0 9
1.3120 -8.3475 -1.7862 0.3827 0 9
1.5256 -8.4681 -1.8188 0.8069 0 9
1.7073 -8.3970 -1.8113 0.8049 0 9
1.8938 -8.3536 -1.8106 0.2695 0 9
2.1260 -8.4929 -1.8506 0.4108 0 9
2.3262 -8.4834 -1.8594 0.2355 0 9
2.5246 -8.4606 -1.8663 0.7762 0 9
2.7533 -8.5271 -1.8941 0.8017 0 9
2.8927 -8.3181 -1.8616 0.5807 0 9
3.0574 -8.1966 -1.8492 0.8521 0 8
3.2615 -8.1808 -1.8616 0.9457 0 8
3.4703 -8.1691 -1.8761 0.9383 0 8
3.6039 -7.9829 -1.8514 0.3207 0 8
3.7225 -7.7774 -1.8226 0.3257 0 8
3.8330 -7.5691 -1.7934 0.3160 0 7
3.9374 -7.3625 -1.7649 0.3211 0 7
4.0375 -7.1600 -1.7375 0.3262 0 7
4.1332 -6.9615 -1.7114 0.3312 0 7
4.2249 -6.7669 -1.6863 0.3361 0 7
4.3128 -6.5758 -1.6623 0.3410 0 7
4.3969 -6.3881 -1.6393 0.3457 0 7
4.4776 -6.2038 -1.6172 0.3505 0 7
4.5548 -6.0225 -1.5961 0.3551 0 7
4.6288 -5.8442 -1.5759 0.3597 0 7
4.6997 -5.6687 -1.5565 0.3641 0 7
4.7677 -5.4959 -1.5379 0.3685 0 7
4.8327 -5.3257 -1.5202 0.3728 0 7
4.8951 -5.1579 -1.5031 0.3771 0 7
4.9547 -4.9925 -1.4868 0.3812 0 7
5.0119 -4.8293 -1.4712 0.3852 0 7
5.0665 -4.6682 -1.4563 0.3892 0 7
5.1188 -4.5091 -1.4420 0.3931 0 7
5.1688 -4.3520 -1.4283 0.3968 0 7
5.2166 -4.1966 -1.4152 0.4005 0 7
5.2623 -4.0431 -1.4027 0.4040 0 7
5.3059 -3.8911 -1.3908 0.4075 0 7
5.3475 -3.7408 -1.3795 0.4109 0 7
5.3871 -3.5920 -1.3686 0.4141 0 7
5.4248 -3.4445 -1.3583 0.4173 0 7
5.4607 -3.2985 -1.3485 0.4203 0 7
5.4948 -3.1537 -1.3392 0.4232 0 7
5.5272 -3.0101 -1.3304 0.4260 0 7
5.5578 -2.8677 -1.3220 0.4287 0 7
5.5868 -2.7263 -1.3140 0.4313 0 7
5.6142 -2.5860 -1.3066 0.4338 0 7
5.6400 -2.4466 -1.2995 0.4361 0 7
5.6642 -2.3082 -1.2929 0.4384 0 7
5.6869 -2.1706 -1.2867 0.4405 0 7
5.7081 -2.0337 -1.2809 0.4425 0 7
5.7279 -1.8977 -1.2755 0.4444 0 6
5.7462 -1.7622 -1.2705 0.4461 0 7
5.7631 -1.6275 -1.2659 0.4477 0 6
5.7786 -1.4933 -1.2616 0.4492 0 7
5.7928 -1.3596 -1.2578 0.4506 0 7
5.8056 -1.2264 -1.2543 0.4519 0 7
4.2515 -0.7993 -0.9144 0.2802 24 10
4.0128 -0.6620 -0.8597 0.6250 24 10
3.9299 -0.5584 -0.8391 0.7469 24 10
3.8706 -0.4620 -0.8240 0.9040 24 10
3.8422 -0.3717 -0.8160 0.9128 24 10
3.8187 -0.2835 -0.8094 0.9502 24 10
3.8055 -0.1971 -0.8055 0.9539 24 10
3.7922 -0.1116 -0.8019 0.9581 24 10
3.7814 -0.0267 -0.7993 0.9539 24 10
3.7838 0.0578 -0.7999 0.9605 24 10
3.7970 0.1429 -0.8032 0.9566 24 10
3.8104 0.2288 -0.8069 0.9522 24 10
3.8246 0.3156 -0.8112 0.9182 24 10
3.8526 0.4047 -0.8188 0.9096 24 10
3.8904 0.4968 -0.8290 0.7560 24 10
3.9546 0.5951 -0.8453 0.6356 24 10
4.0754 0.7067 -0.8743 0.2930 24 10
5.8129 1.1424 -1.2522 0.4526 0 7
5.8010 1.2753 -1.2555 0.4514 0 7
5.7877 1.4087 -1.2591 0.4501 0 7
5.7731 1.5425 -1.2631 0.4487 0 7
5.7571 1.6769 -1.2675 0.4472 0 7
5.7397 1.8119 -1.2723 0.4455 0 6
5.7208 1.9476 -1.2774 0.4437 0 7
5.7005 2.0839 -1.2830 0.4418 0 7
5.6787 2.2210 -1.2889 0.4397 0 7
5.6555 2.3590 -1.2953 0.4376 0 7
5.6307 2.4977 -1.3021 0.4353 0 7
5.6043 2.6374 -1.3093 0.4329 0 7
5.5763 2.7782 -1.3169 0.4304 0 7
5.5467 2.9199 -1.3250 0.4278 0 7
5.5155 3.0627 -1.3335 0.4250 0 7
4.9567 2.8992 -1.2138 0.4993 0 10
4.6424 2.8565 -1.1522 0.5180 0 10
4.4789 2.8958 -1.1274 0.9245 0 10
4.2123 2.8589 -1.0761 0.5037 0 10
4.0078 2.8530 -1.0399 0.5652 0 10
3.8230 2.8522 -1.0082 0.5898 0 10
3.6600 2.8601 -0.9819 0.6721 0 10
