ply
format ascii 1.0
element vertex 1402
property float32 x
property float32 y
property float32 z
property float32 CosAngle
property uint32 ObjIdx
property uint32 ObjTag
end_header
0.4099 8.5891 -2.4343 0.9609 0 1
0.2180 8.5904 -2.4327 0.9615 0 1
0.0262 8.5917 -2.4323 0.9617 0 1
-0.1656 8.5930 -2.4331 0.9614 0 1
-0.3576 8.5943 -2.4351 0.9606 0 1
-0.5501 8.5956 -2.4383 0.9593 0 1
-0.7431 8.5969 -2.4428 0.9575 0 1
-0.8427 7.7333 -2.2022 0.6196 0 20
-1.0144 7.7069 -2.2006 0.9393 0 20
-1.1940 7.7334 -2.2152 0.2841 0 20
-1.3944 7.8635 -2.2608 0.2924 0 20
-1.5934 7.9492 -2.2951 0.2266 0 20
-1.9256 8.6050 -2.4963 0.9370 0 1
-2.1286 8.6064 -2.5098 0.9319 0 1
-2.3164 8.5429 -2.5058 0.9264 0 1
-2.5228 8.5444 -2.5221 0.9204 0 1
-2.7320 8.5458 -2.5399 0.9140 0 1
-3.0358 8.8128 -2.6387 0.9071 0 1
-3.2767 8.8645 -2.6754 0.8997 0 1
-3.5041 8.8661 -2.6989 0.8919 0 1
-4.6140 5.6035 -2.0549 0.7538 0 9
-4.6549 5.4027 -2.0189 0.9877 0 9
-4.7733 5.2964 -2.0185 0.9878 0 9
-4.9537 5.2558 -2.0446 0.5992 0 9
-4.2208 -8.3862 -2.6578 0.2747 0 9
-4.0751 -8.5675 -2.6858 0.5330 0 9
-3.8382 -8.5568 -2.6549 0.7087 0 9
-3.5830 -8.4904 -2.6088 0.4225 0 9
-3.3695 -8.5097 -2.5910 0.7254 0 9
-3.2006 -8.6419 -2.6088 0.6142 0 9
-2.9138 -8.4412 -2.5280 0.5185 0 9
-2.6607 -8.3046 -2.4687 0.2901 0 9
-2.4603 -8.3133 -2.4543 0.4200 0 9
-2.2447 -8.2579 -2.4226 0.3080 0 9
-2.0623 -8.3155 -2.4254 0.3608 0 9
-1.8791 -8.3726 -2.4292 0.6791 0 9
-1.6847 -8.3770 -2.4190 0.3787 0 9
-1.4910 -8.3774 -2.4088 0.7653 0 9
-1.2926 -8.3368 -2.3883 0.5804 0 9
-1.1098 -8.3911 -2.3961 0.0446 0 9
-0.9246 -8.4350 -2.4022 0.6813 0 9
-0.7373 -8.4672 -2.4061 0.8961 0 9
-0.5462 -8.4515 -2.3975 0.0880 0 9
-0.3541 -8.3808 -2.3747 0.2481 0 9
-0.1664 -8.3610 -2.3674 0.4993 0 9
1.3199 3.8982 -1.2659 0.3809 0 10
1.2600 4.0142 -1.2941 0.3737 0 10
1.2003 4.1456 -1.3275 0.3223 0 10
1.1515 4.3373 -1.3803 0.1780 0 10
1.6956 7.0144 -2.2196 0.3428 0 8
1.5637 7.1651 -2.2557 0.3373 0 8
1.4267 7.3177 -2.2931 0.3318 0 8
1.2844 7.4723 -2.3320 0.3263 0 8
1.1367 7.6289 -2.3724 0.3207 0 8
0.9832 7.7877 -2.4143 0.3151 0 8
0.8238 7.9487 -2.4579 0.3096 0 8
0.6581 8.1118 -2.5032 0.3040 0 8
0.4858 8.2773 -2.5503 0.2984 0 8
0.3068 8.4451 -2.5992 0.2927 0 8
0.1202 8.5914 -2.6428 0.9552 0 1
-0.0716 8.5927 -2.6430 0.9552 0 1
-0.2635 8.5940 -2.6446 0.9546 0 1
-0.4557 8.5953 -2.6475 0.9536 0 1
-0.6485 8.5967 -2.6517 0.9520 0 1
-0.7632 7.7940 -2.4087 0.6114 0 20
-0.9300 7.7175 -2.3909 0.9331 0 20
-1.1063 7.7246 -2.4002 0.2729 0 20
-1.2968 7.8090 -2.4348 0.5775 0 20
-1.4574 7.7074 -2.4126 0.9638 0 20
-1.6415 7.7315 -2.4311 0.7566 0 20
-2.0289 8.6062 -2.7196 0.9283 0 1
-2.2163 8.5426 -2.7145 0.9230 0 1
-2.4215 8.5441 -2.7315 0.9173 0 1
-2.6293 8.5455 -2.7500 0.9111 0 1
-2.8616 8.6119 -2.7912 0.9044 0 1
-3.0772 8.6134 -2.8133 0.8973 0 1
-3.2963 8.6150 -2.8371 0.8898 0 1
-3.5194 8.6165 -2.8628 0.8818 0 1
-3.7466 8.6181 -2.8904 0.8734 0 1
-4.5499 5.6504 -2.2313 0.7522 0 9
-4.5909 5.4479 -2.1913 0.7704 0 9
-4.7019 5.3333 -2.1869 0.9841 0 9
-4.8461 5.2557 -2.1989 0.5993 0 9
-4.5711 -8.3763 -2.9350 0.4052 0 9
-4.3699 -8.4509 -2.9263 0.7251 0 9
-4.0664 -8.3136 -2.8466 0.4949 0 9
-3.8373 -8.3101 -2.8153 0.3971 0 9
-3.6004 -8.2777 -2.7764 0.7459 0 9
-3.3803 -8.2716 -2.7484 0.4790 0 9
-3.1803 -8.3069 -2.7359 0.3535 0 9
-3.0015 -8.3965 -2.7426 0.6988 0 9
-2.8062 -8.4400 -2.7357 0.8511 0 9
-2.6443 -8.5886 -2.7640 0.6943 0 9
-2.3932 -8.4384 -2.6978 0.7299 0 9
-2.1907 -8.4373 -2.6812 0.6231 0 9
-1.9693 -8.3460 -2.6375 0.4078 0 9
-1.7845 -8.3970 -2.6404 0.0249 0 9
-1.5814 -8.3543 -2.6152 0.1233 0 9
-1.4089 -8.4736 -2.6421 0.6674 0 9
-1.2098 -8.4360 -2.6213 0.6887 0 9
-1.0080 -8.3512 -2.5873 0.3489 0 9
-0.8220 -8.3788 -2.5895 0.4296 0 9
-0.6291 -8.3193 -2.5661 0.4121 0 9
-0.4495 -8.4488 -2.6023 0.2278 0 9
-0.2579 -8.3598 -2.5725 0.2424 0 9
-0.0727 -8.5274 -2.6229 0.7131 0 9
0.1169 -8.4715 -2.6059 0.6045 0 9
0.3052 -8.4465 -2.5997 0.2927 0 8
0.4843 -8.2787 -2.5507 0.2983 0 8
0.6616 -8.1742 -2.5224 0.9921 0 8
0.8447 -8.1658 -2.5250 0.9911 0 8
1.0283 -8.1572 -2.5288 0.9896 0 8
1.1996 -8.0617 -2.5069 0.3366 0 8
1.3571 -7.9040 -2.4667 0.3421 0 8
1.5090 -7.7480 -2.4279 0.3476 0 8
1.6545 -7.5883 -2.3888 0.3373 0 7
1.7943 -7.4288 -2.3506 0.3428 0 7
1.9290 -7.2712 -2.3138 0.3482 0 7
2.0587 -7.1156 -2.2784 0.3536 0 7
2.1838 -6.9619 -2.2442 0.3590 0 7
2.3043 -6.8100 -2.2113 0.3644 0 7
2.4204 -6.6598 -2.1795 0.3697 0 7
2.5324 -6.5114 -2.1489 0.3749 0 7
2.6403 -6.3647 -2.1194 0.3801 0 7
2.7444 -6.2196 -2.0910 0.3853 0 7
2.8447 -6.0760 -2.0635 0.3904 0 7
2.9414 -5.9340 -2.0371 0.3955 0 7
3.0347 -5.7935 -2.0116 0.4005 0 7
3.1246 -5.6544 -1.9870 0.4055 0 7
3.2112 -5.5167 -1.9634 0.4104 0 7
3.2948 -5.3803 -1.9405 0.4152 0 7
3.3753 -5.2453 -1.9185 0.4200 0 6
3.4529 -5.1115 -1.8973 0.4246 0 7
3.5277 -4.9789 -1.8769 0.4293 0 7
3.5998 -4.8475 -1.8572 0.4338 0 7
3.6692 -4.7173 -1.8382 0.4383 0 7
3.7361 -4.5882 -1.8199 0.4427 0 7
3.8004 -4.4601 -1.8023 0.4470 0 7
3.8624 -4.3331 -1.7854 0.4513 0 7
3.9220 -4.2071 -1.7691 0.4554 0 7
3.9793 -4.0820 -1.7534 0.4595 0 7
4.0345 -3.9579 -1.7383 0.4635 0 7
4.0875 -3.8346 -1.7239 0.4674 0 7
4.1384 -3.7122 -1.7099 0.4712 0 7
4.1872 -3.5907 -1.6966 0.4749 0 7
4.2341 -3.4699 -1.6838 0.4785 0 7
4.2790 -3.3499 -1.6715 0.4820 0 7
4.3221 -3.2307 -1.6597 0.4854 0 7
4.3633 -3.1122 -1.6485 0.4887 0 7
4.4027 -2.9943 -1.6377 0.4920 0 7
4.4404 -2.8771 -1.6274 0.4951 0 7
4.4763 -2.7606 -1.6176 0.4981 0 7
4.5105 -2.6446 -1.6082 0.5010 0 7
4.5431 -2.5292 -1.5993 0.5038 0 7
4.5741 -2.4143 -1.5908 0.5065 0 7
4.6035 -2.3000 -1.5828 0.5090 0 7
4.6313 -2.1861 -1.5752 0.5115 0 7
4.6576 -2.0727 -1.5680 0.5138 0 7
4.6824 -1.9597 -1.5613 0.5161 0 7
4.7057 -1.8472 -1.5549 0.5182 0 6
4.7275 -1.7350 -1.5489 0.5202 0 7
4.7479 -1.6232 -1.5433 0.5220 0 6
4.7669 -1.5117 -1.5382 0.5238 0 7
4.7845 -1.4006 -1.5334 0.5254 0 7
4.8006 -1.2897 -1.5289 0.5270 0 7
4.8154 -1.1791 -1.5249 0.5284 0 7
4.8289 -1.0688 -1.5212 0.5296 0 7
4.8410 -0.9587 -1.5179 0.5308 0 7
4.0829 -0.7142 -1.2749 0.2059 24 10
3.9924 -0.6069 -1.2421 0.6279 24 10
3.9106 -0.5055 -1.2128 0.6431 24 10
3.8648 -0.4121 -1.1955 0.8742 24 10
3.8494 -0.3237 -1.1882 0.8819 24 10
3.8338 -0.2364 -1.1814 0.8870 24 10
3.8276 -0.1504 -1.1782 0.9062 24 10
3.8241 -0.0648 -1.1764 0.8974 24 10
3.8229 0.0206 -1.1759 0.8978 24 10
3.8253 0.1060 -1.1770 0.8969 24 10
3.8301 0.1917 -1.1795 0.9051 24 10
3.8413 0.2784 -1.1846 0.8846 24 10
3.8571 0.3662 -1.1917 0.8793 24 10
3.8719 0.4550 -1.1991 0.8716 24 10
3.9495 0.5537 -1.2267 0.6358 24 10
4.0374 0.6582 -1.2582 0.4205 24 10
4.8467 0.9017 -1.5163 0.5313 0 7
4.8353 1.0117 -1.5194 0.5302 0 7
4.8226 1.1219 -1.5229 0.5290 0 7
4.8085 1.2324 -1.5268 0.5277 0 7
4.7930 1.3431 -1.5310 0.5262 0 7
4.7762 1.4541 -1.5356 0.5247 0 7
4.7579 1.5654 -1.5406 0.5230 0 7
4.7383 1.6770 -1.5460 0.5211 0 7
4.7172 1.7890 -1.5517 0.5192 0 6
4.6946 1.9013 -1.5579 0.5172 0 7
4.6706 2.0141 -1.5645 0.5150 0 7
4.6451 2.1272 -1.5714 0.5127 0 7
4.6181 2.2409 -1.5788 0.5103 0 7
4.5895 2.3550 -1.5866 0.5078 0 7
4.5594 2.4696 -1.5949 0.5052 0 7
4.5276 2.5847 -1.6035 0.5024 0 7
4.4943 2.7004 -1.6127 0.4996 0 7
4.4592 2.8166 -1.6223 0.4966 0 7
4.4224 2.9335 -1.6323 0.4936 0 7
4.3840 3.0510 -1.6428 0.4904 0 7
3.9153 2.8567 -1.4907 0.5626 0 10
3.7378 2.8571 -1.4471 0.5815 0 10
3.5757 2.8619 -1.4087 0.6751 0 10
3.4163 2.8617 -1.3707 0.5665 0 10
3.2568 2.8542 -1.3320 0.5858 0 10
3.1127 2.8532 -1.2987 0.6749 0 10
2.9817 2.8581 -1.2704 0.6908 0 10
2.8564 2.8630 -1.2439 0.7093 0 10
2.7402 2.8720 -1.2209 0.7664 0 10
2.6306 2.8833 -1.2005 0.7944 0 10
2.5253 2.8951 -1.1816 0.8066 0 10
2.4059 2.8857 -1.1556 0.6863 0 10
2.3386 2.9359 -1.1545 0.7764 0 10
2.2556 2.9651 -1.1459 0.8490 0 10
2.1754 2.9963 -1.1389 0.8506 0 10
2.0933 3.0228 -1.1309 0.9155 0 10
2.0048 3.0377 -1.1195 0.9069 0 10
1.9175 3.0515 -1.1085 0.9103 0 10
1.8431 3.0837 -1.1050 0.9750 0 10
1.7705 3.1183 -1.1029 0.9605 0 10
1.7009 3.1577 -1.1032 0.9360 0 10
1.6381 3.2108 -1.1087 0.6683 0 10
1.5904 3.2971 -1.1259 0.5320 0 10
1.5470 3.3990 -1.1486 0.5215 0 10
1.5015 3.5043 -1.1726 0.5108 0 10
1.4535 3.6129 -1.1978 0.4701 0 10
1.4031 3.7257 -1.2245 0.4660 0 10
1.3494 3.8409 -1.2522 0.3851 0 10
1.2910 3.9548 -1.2796 0.3724 0 10
1.2306 4.0762 -1.3097 0.3267 0 10
1.1711 4.2169 -1.3461 0.1826 0 10
1.7611 6.9383 -2.2017 0.3456 0 8
1.6316 7.0880 -2.2371 0.3401 0 8
1.4972 7.2396 -2.2739 0.3346 0 8
1.3576 7.3932 -2.3120 0.3291 0 8
1.2127 7.5488 -2.3516 0.3236 0 8
1.0622 7.7065 -2.3928 0.3180 0 8
0.9058 7.8663 -2.4355 0.3124 0 8
0.7434 8.0283 -2.4799 0.3068 0 8
0.5745 8.1926 -2.5261 0.3012 0 8
0.3990 8.3592 -2.5740 0.2956 0 8
0.2164 8.5282 -2.6239 0.2900 0 8
0.0262 8.5921 -2.6427 0.9553 0 1
-0.1656 8.5934 -2.6436 0.9549 0 1
-0.3576 8.5947 -2.6458 0.9541 0 1
-0.5501 8.5960 -2.6493 0.9529 0 1
-0.6841 7.9141 -2.4433 0.6027 0 20
-0.8411 7.7180 -2.3879 0.9342 0 20
-1.0127 7.6943 -2.3870 0.9635 0 20
-1.2267 7.9454 -2.4728 0.5686 0 20
-1.3725 7.7400 -2.4178 0.9617 0 20
-1.5411 7.6884 -2.4118 0.7626 0 20
-1.9256 8.6054 -2.7123 0.9308 0 1
-2.1287 8.6068 -2.7270 0.9257 0 1
-2.3165 8.5433 -2.7226 0.9202 0 1
-2.5229 8.5448 -2.7404 0.9143 0 1
-2.7529 8.6112 -2.7807 0.9079 0 1
-2.9668 8.6127 -2.8018 0.9010 0 1
-3.1841 8.6142 -2.8247 0.8937 0 1
-3.4051 8.6157 -2.8495 0.8860 0 1
-3.6301 8.6173 -2.8761 0.8778 0 1
-3.8595 8.6189 -2.9046 0.8691 0 1
-4.5699 5.5499 -2.2113 0.7590 0 9
-4.6416 5.3874 -2.1872 0.9839 0 9
-4.7598 5.2814 -2.1868 0.9841 0 9
-4.9673 5.2702 -2.2275 0.6072 0 9
-4.4762 -8.4201 -2.9330 0.0458 0 9
-4.2448 -8.4337 -2.9040 0.4701 0 9
-3.9782 -8.3639 -2.8487 0.4945 0 9
-3.7359 -8.3287 -2.8077 0.3042 0 9
-3.4943 -8.2802 -2.7643 0.3026 0 9
-3.2948 -8.3212 -2.7527 0.5182 0 9
-3.0688 -8.2861 -2.7178 0.3558 0 9
-2.8945 -8.3856 -2.7285 0.8533 0 9
-2.6588 -8.2986 -2.6803 0.3718 0 9
-2.4562 -8.2995 -2.6622 0.3221 0 9
-2.2650 -8.3326 -2.6559 0.3978 0 9
-2.0543 -8.2836 -2.6250 0.7008 0 9
-1.9059 -8.4921 -2.6770 0.3314 0 9
-1.6772 -8.3397 -2.6165 0.4402 0 9
-1.4852 -8.3448 -2.6070 0.1930 0 9
-1.2809 -8.2614 -2.5714 0.1539 0 9
-1.0930 -8.2635 -2.5638 0.3910 0 9
-0.9072 -8.2757 -2.5607 0.3526 0 9
-0.7262 -8.3388 -2.5745 0.1820 0 9
-0.5355 -8.2847 -2.5535 0.4142 0 9
-0.3577 -8.4668 -2.6065 0.2475 0 9
-0.1661 -8.3466 -2.5677 0.1264 0 9
1.2502 3.6924 -1.2958 0.4204 0 10
1.1911 3.7949 -1.3221 0.4037 0 10
1.1290 3.8993 -1.3494 0.3942 0 10
1.0652 4.0123 -1.3799 0.3677 0 10
1.0002 4.1376 -1.4150 0.3334 0 10
1.4643 6.7097 -2.2829 0.3576 0 8
1.3346 6.8454 -2.3183 0.3522 0 8
1.2002 6.9824 -2.3550 0.3467 0 8
1.0609 7.1207 -2.3931 0.3411 0 8
0.9166 7.2604 -2.4325 0.3356 0 8
0.7670 7.4014 -2.4734 0.3301 0 8
0.6120 7.5437 -2.5158 0.3245 0 8
0.4512 7.6875 -2.5598 0.3189 0 8
0.2845 7.8326 -2.6053 0.3134 0 8
0.1116 7.9792 -2.6526 0.3078 0 8
-0.0677 8.1271 -2.7016 0.3022 0 8
-0.2538 8.2765 -2.7524 0.2966 0 8
-0.4468 8.4273 -2.8052 0.2910 0 8
-0.6472 8.5795 -2.8600 0.2855 0 8
-0.7580 7.7409 -2.5854 0.6111 0 20
-0.9313 7.7278 -2.5873 0.9251 0 20
-1.1338 7.9169 -2.6585 0.2644 0 20
-1.2875 7.7526 -2.6123 0.9551 0 20
-1.4539 7.6886 -2.6010 0.9592 0 20
-1.6468 7.7565 -2.6358 0.7487 0 20
-2.0290 8.6066 -2.9393 0.9215 0 1
-2.0339 7.8396 -2.6922 0.3418 0 20
-2.4216 8.5445 -2.9521 0.9106 0 1
-2.6294 8.5459 -2.9721 0.9045 0 1
-2.8617 8.6123 -3.0167 0.8979 0 1
-3.0774 8.6139 -3.0405 0.8909 0 1
-3.2965 8.6154 -3.0663 0.8834 0 1
-3.5195 8.6170 -3.0940 0.8755 0 1
-3.7467 8.6185 -3.1239 0.8671 0 1
-4.5131 5.6047 -2.3920 0.7768 0 9
-4.5746 5.4285 -2.3597 0.9692 0 9
-4.6928 5.3230 -2.3588 0.9158 0 9
-4.8702 5.2818 -2.3882 0.5768 0 9
-4.4832 -8.2153 -3.1110 0.4170 0 9
-4.3005 -8.3167 -3.1122 0.8194 0 9
-4.1005 -8.3832 -3.1021 0.3315 0 9
-3.8773 -8.3968 -3.0744 0.8564 0 9
-3.6372 -8.3623 -3.0312 0.2056 0 9
-3.4627 -8.4733 -3.0427 0.2866 0 9
-3.2541 -8.4999 -3.0254 0.7509 0 9
-3.0415 -8.5085 -3.0035 0.3031 0 9
-2.7862 -8.3797 -2.9354 0.3613 0 9
-2.5541 -8.2957 -2.8853 0.3104 0 9
-2.3689 -8.3527 -2.8860 0.5234 0 9
-2.1273 -8.1931 -2.8138 0.4007 0 9
-1.9625 -8.3174 -2.8407 0.4654 0 9
-1.7757 -8.3560 -2.8396 0.5726 0 9
-1.5930 -8.4156 -2.8471 0.1269 0 9
-1.3856 -8.3337 -2.8082 0.5171 0 9
-1.2020 -8.3816 -2.8146 0.5107 0 9
-1.0247 -8.4901 -2.8426 0.6575 0 9
-0.8334 -8.4947 -2.8372 0.9405 0 9
-0.6403 -8.4676 -2.8227 0.0665 0 9
-0.4485 -8.4286 -2.8057 0.2910 0 8
-0.2554 -8.2778 -2.7529 0.2966 0 8
-0.0696 -8.1710 -2.7162 0.9886 0 8
0.1127 -8.1635 -2.7139 0.9894 0 8
0.2947 -8.1558 -2.7128 0.9898 0 8
0.4751 -8.1203 -2.7038 0.3349 0 8
0.6455 -7.9756 -2.6598 0.3404 0 8
0.8102 -7.8321 -2.6173 0.3460 0 8
0.9693 -7.6892 -2.5761 0.3356 0 7
1.1221 -7.5413 -2.5344 0.3411 0 7
1.2696 -7.3948 -2.4940 0.3466 0 7
1.4120 -7.2497 -2.4551 0.3521 0 7
1.5494 -7.1061 -2.4176 0.3576 0 7
1.6820 -6.9637 -2.3813 0.3630 0 7
1.8100 -6.8227 -2.3464 0.3684 0 7
1.9336 -6.6830 -2.3126 0.3738 0 7
2.0529 -6.5446 -2.2800 0.3792 0 7
2.1681 -6.4074 -2.2485 0.3845 0 7
2.2793 -6.2715 -2.2181 0.3897 0 7
2.3867 -6.1368 -2.1887 0.3950 0 7
2.4904 -6.0032 -2.1604 0.4001 0 7
2.5905 -5.8708 -2.1330 0.4053 0 7
2.6872 -5.7395 -2.1066 0.4104 0 7
2.7805 -5.6094 -2.0811 0.4154 0 7
2.8706 -5.4803 -2.0565 0.4204 0 7
2.9576 -5.3523 -2.0327 0.4253 0 7
3.0416 -5.2252 -2.0097 0.4301 0 6
3.1226 -5.0992 -1.9876 0.4349 0 7
3.2009 -4.9742 -1.9662 0.4397 0 7
3.2763 -4.8501 -1.9456 0.4443 0 7
3.3491 -4.7269 -1.9257 0.4489 0 7
3.4194 -4.6046 -1.9065 0.4534 0 7
3.4871 -4.4832 -1.8880 0.4579 0 7
3.5524 -4.3626 -1.8701 0.4623 0 7
3.6153 -4.2429 -1.8529 0.4665 0 7
3.6759 -4.1239 -1.8363 0.4708 0 7
3.7343 -4.0057 -1.8204 0.4749 0 7
3.7905 -3.8883 -1.8050 0.4789 0 7
3.8446 -3.7716 -1.7902 0.4829 0 7
3.8966 -3.6556 -1.7760 0.4867 0 7
3.9466 -3.5402 -1.7624 0.4905 0 7
3.9947 -3.4256 -1.7492 0.4942 0 7
4.0408 -3.3115 -1.7366 0.4978 0 7
4.0850 -3.1981 -1.7245 0.5013 0 7
4.1275 -3.0852 -1.7129 0.5047 0 7
4.1681 -2.9729 -1.7018 0.5080 0 7
4.2070 -2.8612 -1.6912 0.5112 0 7
4.2441 -2.7500 -1.6810 0.5142 0 7
4.2796 -2.6393 -1.6713 0.5172 0 7
4.3135 -2.5290 -1.6621 0.5201 0 7
4.3457 -2.4192 -1.6533 0.5229 0 7
4.3763 -2.3099 -1.6449 0.5255 0 7
4.4054 -2.2010 -1.6370 0.5281 0 7
4.4329 -2.0924 -1.6294 0.5305 0 7
4.4590 -1.9843 -1.6223 0.5329 0 7
4.4835 -1.8765 -1.6156 0.5351 0 6
4.5066 -1.7690 -1.6093 0.5372 0 7
4.5282 -1.6619 -1.6034 0.5392 0 6
4.5485 -1.5550 -1.5979 0.5410 0 6
4.5673 -1.4484 -1.5927 0.5428 0 7
4.5847 -1.3421 -1.5879 0.5444 0 7
4.6008 -1.2360 -1.5836 0.5459 0 7
4.6155 -1.1302 -1.5795 0.5473 0 7
4.6288 -1.0245 -1.5759 0.5486 0 7
4.6409 -0.9190 -1.5726 0.5497 0 7
4.6515 -0.8137 -1.5697 0.5507 0 7
4.0368 -0.6137 -1.3573 0.6489 24 10
3.9560 -0.5113 -1.3259 0.4281 24 10
3.8836 -0.4141 -1.2982 0.6353 24 10
3.8624 -0.3248 -1.2884 0.8727 24 10
3.8466 -0.2372 -1.2810 0.8777 24 10
3.8424 -0.1509 -1.2782 0.8861 24 10
3.8400 -0.0651 -1.2766 0.8873 24 10
3.8388 0.0206 -1.2760 0.8877 24 10
3.8412 0.1064 -1.2773 0.8868 24 10
3.8437 0.1924 -1.2793 0.8854 24 10
3.8541 0.2793 -1.2845 0.8753 24 10
3.8713 0.3675 -1.2926 0.6380 24 10
3.8956 0.4578 -1.3038 0.4354 24 10
4.0004 0.5609 -1.3428 0.6559 24 10
4.6566 0.7592 -1.5683 0.5512 0 7
4.6466 0.8644 -1.5710 0.5502 0 7
4.6352 0.9698 -1.5741 0.5492 0 7
4.6226 1.0754 -1.5776 0.5480 0 7
4.6086 1.1811 -1.5814 0.5466 0 7
4.5932 1.2871 -1.5856 0.5452 0 7
4.5765 1.3933 -1.5902 0.5436 0 7
4.5584 1.4997 -1.5951 0.5419 0 7
4.5389 1.6064 -1.6005 0.5401 0 7
4.5180 1.7134 -1.6062 0.5382 0 7
4.4957 1.8207 -1.6123 0.5362 0 6
4.4719 1.9284 -1.6188 0.5340 0 7
4.4466 2.0363 -1.6257 0.5318 0 7
4.4198 2.1447 -1.6330 0.5294 0 7
4.3916 2.2534 -1.6407 0.5269 0 7
4.3617 2.3625 -1.6489 0.5243 0 7
4.3304 2.4721 -1.6575 0.5216 0 7
4.2974 2.5821 -1.6665 0.5187 0 7
4.2627 2.6926 -1.6760 0.5158 0 7
4.2264 2.8035 -1.6859 0.5128 0 7
4.1885 2.9150 -1.6963 0.5096 0 7
4.1487 3.0270 -1.7071 0.5064 0 7
3.7372 2.8567 -1.5636 0.5756 0 10
3.5695 2.8569 -1.5197 0.5982 0 10
3.4108 2.8571 -1.4790 0.6074 0 10
3.2675 2.8635 -1.4442 0.5777 0 10
3.1185 2.8585 -1.4062 0.6117 0 10
2.9787 2.8553 -1.3716 0.6385 0 10
2.8531 2.8598 -1.3428 0.7012 0 10
2.7332 2.8646 -1.3161 0.7193 0 10
2.6180 2.8695 -1.2912 0.7332 0 10
2.5126 2.8805 -1.2706 0.8054 0 10
2.4108 2.8917 -1.2514 0.8203 0 10
2.3124 2.9030 -1.2337 0.8325 0 10
2.2169 2.9143 -1.2172 0.8497 0 10
2.1354 2.9410 -1.2081 0.8756 0 10
2.0571 2.9705 -1.2011 0.8841 0 10
1.9812 3.0018 -1.1956 0.8923 0 10
1.9025 3.0276 -1.1886 0.9148 0 10
1.8228 3.0497 -1.1810 0.9800 0 10
1.7498 3.0817 -1.1780 0.9813 0 10
1.6744 3.1086 -1.1737 0.9592 0 10
1.6039 3.1437 -1.1731 0.9045 0 10
1.5393 3.1911 -1.1777 0.6157 0 10
1.4894 3.2725 -1.1952 0.6068 0 10
1.4443 3.3709 -1.2190 0.5162 0 10
1.3938 3.4647 -1.2414 0.5122 0 10
1.3359 3.5473 -1.2600 0.4324 0 10
1.2798 3.6429 -1.2835 0.4288 0 10
1.2215 3.7420 -1.3085 0.4063 0 10
1.1612 3.8461 -1.3355 0.3982 0 10
1.0979 3.9532 -1.3638 0.3720 0 10
1.0336 4.0722 -1.3965 0.3376 0 10
1.5287 6.6410 -2.2653 0.3604 0 8
1.4013 6.7761 -2.3001 0.3549 0 8
1.2693 6.9124 -2.3361 0.3495 0 8
1.1326 7.0500 -2.3735 0.3440 0 8
0.9909 7.1890 -2.4123 0.3384 0 8
0.8440 7.3293 -2.4524 0.3329 0 8
0.6918 7.4710 -2.4940 0.3273 0 8
0.5339 7.6140 -2.5371 0.3218 0 8
0.3703 7.7584 -2.5819 0.3162 0 8
0.2006 7.9043 -2.6283 0.3106 0 8
0.0246 8.0515 -2.6764 0.3050 0 8
-0.1580 8.2001 -2.7263 0.2995 0 8
-0.3475 8.3502 -2.7781 0.2939 0 8
-0.5441 8.5017 -2.8318 0.2883 0 8
-0.6794 7.8595 -2.6223 0.6026 0 20
-0.8422 7.7282 -2.5841 0.9263 0 20
-1.0171 7.7273 -2.5908 0.9239 0 20
-1.2144 7.8656 -2.6456 0.5703 0 20
-1.3692 7.7212 -2.6066 0.9571 0 20
-1.5461 7.7131 -2.6149 0.7547 0 20
-1.9257 8.6058 -2.9314 0.9240 0 1
-2.1288 8.6073 -2.9473 0.9190 0 1
-2.1059 7.7667 -2.6749 0.8989 0 20
-2.5231 8.5452 -2.9617 0.9077 0 1
-2.7531 8.6116 -3.0053 0.9013 0 1
-2.9670 8.6131 -3.0281 0.8945 0 1
-3.1843 8.6146 -3.0529 0.8872 0 1
-3.4053 8.6162 -3.0796 0.8795 0 1
-3.6303 8.6177 -3.1084 0.8714 0 1
-3.8597 8.6194 -3.1393 0.8628 0 1
-4.5055 5.7275 -2.4223 0.2993 0 9
-4.5363 5.5091 -2.3722 0.7832 0 9
-4.6317 5.3759 -2.3588 0.9696 0 9
-4.7542 5.2752 -2.3605 0.9151 0 9
-4.9869 5.2910 -2.4168 0.6252 0 9
-4.5979 -8.2020 -3.1256 0.3404 0 9
-4.4278 -8.3291 -3.1356 0.4137 0 9
-4.1929 -8.3305 -3.1001 0.5840 0 9
-3.9630 -8.3319 -3.0669 0.8584 0 9
-3.7285 -8.3121 -3.0282 0.3747 0 9
-3.5327 -8.3711 -3.0202 0.5158 0 9
-3.3528 -8.4676 -3.0273 0.6112 0 9
-3.1018 -8.3751 -2.9687 0.5024 0 9
-2.8949 -8.3865 -2.9491 0.0648 0 9
-2.7305 -8.5225 -2.9748 0.5326 0 9
-2.4832 -8.3908 -2.9087 0.1079 0 9
-2.2626 -8.3235 -2.8672 0.4082 0 9
-2.0617 -8.3133 -2.8471 0.2122 0 9
-1.8729 -8.3447 -2.8428 0.4278 0 9
-1.6746 -8.3270 -2.8234 0.3100 0 9
-1.4976 -8.4142 -2.8409 0.4219 0 9
-1.2958 -8.3577 -2.8113 0.5113 0 9
-1.1099 -8.3915 -2.8137 0.4251 0 9
-0.9515 -8.6798 -2.9025 0.5366 0 9
-0.7369 -8.4621 -2.8235 0.6773 0 9
-0.5471 -8.4651 -2.8197 0.6599 0 9
-0.3530 -8.3545 -2.7796 0.2937 0 8
-0.1633 -8.2044 -2.7277 0.2993 0 8
1.1890 3.5117 -1.3259 0.4794 0 10
1.1302 3.6009 -1.3496 0.4372 0 10
1.0695 3.6941 -1.3753 0.4126 0 10
1.0072 3.7936 -1.4036 0.4063 0 10
1.4945 6.1825 -2.2746 0.3831 0 8
1.3756 6.3032 -2.3071 0.3777 0 8
1.2525 6.4246 -2.3407 0.3723 0 8
1.1253 6.5468 -2.3755 0.3669 0 8
0.9937 6.6697 -2.4115 0.3614 0 8
0.8577 6.7934 -2.4487 0.3559 0 8
0.7169 6.9179 -2.4871 0.3504 0 8
0.5714 7.0430 -2.5269 0.3449 0 8
0.4208 7.1689 -2.5681 0.3394 0 8
0.2650 7.2955 -2.6107 0.3338 0 8
0.1038 7.4228 -2.6547 0.3283 0 8
-0.0629 7.5507 -2.7003 0.3227 0 8
-0.2355 7.6792 -2.7474 0.3172 0 8
-0.4140 7.8083 -2.7962 0.3117 0 8
-0.5974 7.9202 -2.8404 0.5938 0 20
-0.7578 7.7391 -2.7808 0.9189 0 20
-0.9325 7.7382 -2.7873 0.9167 0 20
-1.1337 7.9162 -2.8598 0.5631 0 20
-1.2843 7.7333 -2.8034 0.9500 0 20
-1.4554 7.6969 -2.8012 0.7520 0 20
-1.8271 8.6056 -3.1460 0.9191 0 1
-1.8658 7.9143 -2.9078 0.2781 0 20
-1.9932 7.6827 -2.8384 0.9178 0 20
-2.1845 7.7080 -2.8650 0.9053 0 20
-2.6495 8.6113 -3.2219 0.8974 0 1
-2.8619 8.6128 -3.2456 0.8909 0 1
-3.0775 8.6143 -3.2712 0.8839 0 1
-3.2967 8.6158 -3.2989 0.8765 0 1
-3.5197 8.6174 -3.3288 0.8686 0 1
-3.7469 8.6190 -3.3609 0.8603 0 1
-4.4427 5.7766 -2.6061 0.1000 0 9
-4.4801 5.5638 -2.5545 0.8332 0 9
-4.5752 5.4292 -2.5390 0.9323 0 9
-4.7021 5.3336 -2.5427 0.9309 0 9
-4.9043 5.3188 -2.5872 0.6232 0 9
-4.1096 -8.4019 -3.3447 0.0822 0 9
-3.8923 -8.4293 -3.3202 0.5524 0 9
-3.6058 -8.2901 -3.2329 0.3512 0 9
-3.3658 -8.2361 -3.1817 0.4352 0 9
-3.1760 -8.2957 -3.1766 0.3055 0 9
-2.9771 -8.3283 -3.1628 0.3790 0 9
-2.7718 -8.3364 -3.1416 0.3274 0 9
-2.5683 -8.3417 -3.1212 0.6215 0 9
-2.4140 -8.5115 -3.1638 0.5130 0 9
-2.1528 -8.2913 -3.0633 0.5314 0 9
-1.9886 -8.4280 -3.0967 0.7880 0 9
-1.7725 -8.3410 -3.0494 0.3639 0 9
-1.5862 -8.3800 -3.0499 0.2662 0 9
-1.4069 -8.4621 -3.0676 0.2841 0 8
-1.1947 -8.3308 -3.0096 0.2896 0 8
-0.9897 -8.1998 -2.9536 0.2951 0 8
-0.8009 -8.1635 -2.9333 0.9772 0 8
-0.6169 -8.1570 -2.9253 0.9798 0 8
-0.4337 -8.1502 -2.9187 0.9821 0 8
-0.2502 -8.1117 -2.9022 0.3331 0 8
-0.0680 -7.9823 -2.8546 0.3386 0 8
0.1084 -7.8535 -2.8087 0.3442 0 8
0.2791 -7.7250 -2.7643 0.3497 0 8
0.4442 -7.5922 -2.7197 0.3393 0 7
0.6037 -7.4589 -2.6761 0.3448 0 7
0.7579 -7.3263 -2.6339 0.3504 0 7
0.9069 -7.1946 -2.5932 0.3559 0 7
1.0511 -7.0636 -2.5538 0.3613 0 7
1.1904 -6.9334 -2.5157 0.3668 0 7
1.3252 -6.8040 -2.4789 0.3723 0 7
1.4555 -6.6754 -2.4433 0.3777 0 7
1.5815 -6.5476 -2.4088 0.3831 0 7
1.7033 -6.4207 -2.3755 0.3885 0 7
1.8212 -6.2946 -2.3433 0.3938 0 7
1.9351 -6.1692 -2.3122 0.3991 0 7
2.0453 -6.0447 -2.2820 0.4044 0 7
2.1519 -5.9210 -2.2529 0.4096 0 7
2.2550 -5.7981 -2.2247 0.4148 0 7
2.3546 -5.6760 -2.1975 0.4199 0 7
2.4510 -5.5546 -2.1712 0.4250 0 7
2.5441 -5.4341 -2.1457 0.4301 0 7
2.6342 -5.3143 -2.1211 0.4351 0 7
2.7213 -5.1952 -2.0973 0.4400 0 6
2.8054 -5.0769 -2.0743 0.4449 0 7
2.8868 -4.9593 -2.0520 0.4497 0 7
2.9654 -4.8424 -2.0306 0.4545 0 7
3.0413 -4.7262 -2.0098 0.4592 0 7
3.1146 -4.6107 -1.9898 0.4638 0 7
3.1854 -4.4958 -1.9704 0.4683 0 7
3.2538 -4.3817 -1.9517 0.4728 0 7
3.3198 -4.2681 -1.9337 0.4772 0 7
3.3835 -4.1552 -1.9163 0.4816 0 7
3.4450 -4.0429 -1.8995 0.4858 0 7
3.5042 -3.9313 -1.8833 0.4900 0 7
3.5613 -3.8202 -1.8677 0.4941 0 7
3.6163 -3.7096 -1.8526 0.4981 0 7
3.6693 -3.5996 -1.8382 0.5020 0 7
3.7203 -3.4902 -1.8242 0.5059 0 7
3.7694 -3.3812 -1.8108 0.5096 0 7
3.8165 -3.2728 -1.7979 0.5133 0 7
3.8618 -3.1649 -1.7855 0.5168 0 7
3.9053 -3.0574 -1.7736 0.5203 0 7
3.9470 -2.9504 -1.7622 0.5237 0 7
3.9870 -2.8438 -1.7513 0.5269 0 7
4.0253 -2.7377 -1.7409 0.5301 0 7
4.0619 -2.6319 -1.7308 0.5332 0 7
4.0969 -2.5266 -1.7213 0.5361 0 7
4.1303 -2.4216 -1.7122 0.5390 0 7
4.1620 -2.3170 -1.7035 0.5417 0 7
4.1923 -2.2128 -1.6952 0.5444 0 7
4.2210 -2.1089 -1.6874 0.5469 0 7
4.2482 -2.0053 -1.6799 0.5493 0 7
4.2739 -1.9019 -1.6729 0.5516 0 6
4.2982 -1.7989 -1.6663 0.5538 0 6
4.3210 -1.6962 -1.6600 0.5559 0 7
4.3424 -1.5937 -1.6542 0.5579 0 6
4.3625 -1.4914 -1.6487 0.5597 0 7
4.3811 -1.3894 -1.6436 0.5615 0 7
4.3983 -1.2875 -1.6389 0.5631 0 7
4.4142 -1.1859 -1.6345 0.5646 0 7
4.4288 -1.0845 -1.6306 0.5659 0 7
4.4420 -0.9832 -1.6269 0.5672 0 7
4.4539 -0.8820 -1.6237 0.5683 0 7
4.4645 -0.7810 -1.6208 0.5694 0 7
4.4738 -0.6801 -1.6183 0.5702 0 7
4.4818 -0.5793 -1.6161 0.5710 0 7
4.4885 -0.4786 -1.6142 0.5717 0 7
4.4940 -0.3779 -1.6128 0.5722 0 7
4.4981 -0.2774 -1.6116 0.5726 0 7
4.5010 -0.1768 -1.6108 0.5729 0 7
4.5026 -0.0763 -1.6104 0.5730 0 7
3.8892 0.0209 -1.3908 0.6942 24 10
4.5020 0.1247 -1.6106 0.5730 0 7
4.4998 0.2252 -1.6112 0.5728 0 7
4.4963 0.3258 -1.6121 0.5724 0 7
4.4915 0.4264 -1.6134 0.5720 0 7
4.4855 0.5271 -1.6151 0.5714 0 7
4.4781 0.6279 -1.6171 0.5707 0 7
4.4695 0.7287 -1.6194 0.5698 0 7
4.4596 0.8296 -1.6221 0.5689 0 7
4.4484 0.9307 -1.6252 0.5678 0 7
4.4358 1.0319 -1.6286 0.5666 0 7
4.4220 1.1333 -1.6324 0.5653 0 7
4.4068 1.2349 -1.6366 0.5639 0 7
4.3902 1.3366 -1.6411 0.5623 0 7
4.3723 1.4385 -1.6460 0.5606 0 7
4.3530 1.5406 -1.6513 0.5588 0 7
4.3323 1.6430 -1.6569 0.5569 0 7
4.3102 1.7456 -1.6630 0.5549 0 6
4.2867 1.8485 -1.6694 0.5528 0 7
4.2617 1.9517 -1.6762 0.5505 0 7
4.2353 2.0551 -1.6835 0.5482 0 7
4.2074 2.1589 -1.6911 0.5457 0 7
4.1779 2.2629 -1.6991 0.5431 0 7
4.1469 2.3674 -1.7076 0.5404 0 7
4.1144 2.4721 -1.7165 0.5376 0 7
4.0803 2.5773 -1.7258 0.5347 0 7
4.0445 2.6828 -1.7356 0.5317 0 7
4.0071 2.7887 -1.7458 0.5286 0 7
3.9680 2.8951 -1.7565 0.5254 0 7
3.9272 3.0019 -1.7677 0.5220 0 7
3.8846 3.1091 -1.7793 0.5186 0 7
3.4126 2.8586 -1.5919 0.4975 0 10
3.2602 2.8572 -1.5502 0.6184 0 10
3.1218 2.8615 -1.5144 0.7067 0 10
2.9872 2.8634 -1.4797 0.6168 0 10
2.8537 2.8603 -1.4449 0.6470 0 10
2.7300 2.8613 -1.4142 0.7107 0 10
2.6149 2.8661 -1.3874 0.7284 0 10
2.5041 2.8708 -1.3623 0.7425 0 10
2.3982 2.8766 -1.3393 0.8121 0 10
2.2997 2.8870 -1.3199 0.8336 0 10
2.2044 2.8978 -1.3020 0.8522 0 10
2.1125 2.9096 -1.2858 0.8557 0 10
2.0235 2.9220 -1.2710 0.8708 0 10
1.9461 2.9487 -1.2634 0.9160 0 10
1.8727 2.9801 -1.2586 0.8918 0 10
1.8014 3.0140 -1.2557 0.8935 0 10
1.7286 3.0445 -1.2520 0.9631 0 10
1.6536 3.0700 -1.2470 0.9637 0 10
1.5788 3.0946 -1.2424 0.9680 0 10
1.5083 3.1269 -1.2415 0.8903 0 10
1.4432 3.1710 -1.2459 0.8871 0 10
1.3895 3.2429 -1.2616 0.6139 0 10
1.3340 3.3160 -1.2782 0.5208 0 10
1.2766 3.3898 -1.2953 0.5027 0 10
1.2190 3.4698 -1.3152 0.4833 0 10
1.1604 3.5548 -1.3372 0.4394 0 10
1.1005 3.6450 -1.3616 0.4334 0 10
1.0393 3.7425 -1.3890 0.4085 0 10
0.9754 3.8431 -1.4179 0.4022 0 10
1.4367 6.2415 -2.2904 0.3805 0 8
1.3158 6.3626 -2.3234 0.3751 0 8
1.1907 6.4843 -2.3576 0.3696 0 8
1.0614 6.6069 -2.3930 0.3642 0 8
0.9276 6.7302 -2.4295 0.3587 0 8
0.7893 6.8543 -2.4673 0.3532 0 8
0.6462 6.9791 -2.5065 0.3477 0 8
0.4982 7.1046 -2.5469 0.3422 0 8
0.3451 7.2309 -2.5888 0.3366 0 8
0.1867 7.3578 -2.6321 0.3311 0 8
0.0228 7.4854 -2.6768 0.3256 0 8
-0.1467 7.6136 -2.7232 0.3200 0 8
-0.3222 7.7424 -2.7711 0.3145 0 8
-0.5038 7.8718 -2.8208 0.3090 0 8
-0.6747 7.8047 -2.8014 0.6021 0 20
-0.8433 7.7387 -2.7838 0.9179 0 20
-1.0325 7.8445 -2.8294 0.2651 0 20
-1.2022 7.7863 -2.8174 0.5716 0 20
-1.3658 7.7021 -2.7973 0.9521 0 20
-1.5511 7.7382 -2.8223 0.7464 0 20
-1.9258 8.6063 -3.1538 0.9168 0 1
-1.9133 7.7358 -2.8497 0.3933 0 20
-2.0865 7.6949 -2.8511 0.9137 0 20
-2.5232 8.5456 -3.1864 0.9006 0 1
-2.7532 8.6120 -3.2333 0.8943 0 1
-2.9671 8.6135 -3.2579 0.8875 0 1
-3.1844 8.6150 -3.2845 0.8803 0 1
-3.4055 8.6166 -3.3133 0.8727 0 1
-3.6305 8.6182 -3.3442 0.8646 0 1
-4.4476 5.6539 -2.5725 0.7899 0 9
-4.5117 5.4793 -2.5382 0.8386 0 9
-4.6373 5.3824 -2.5406 0.9317 0 9
-4.7883 5.3131 -2.5578 0.6303 0 9
-5.1194 5.4317 -2.6692 0.3473 0 9
-4.4196 -8.3136 -3.3670 0.3761 0 9
-3.9700 -8.3465 -3.3052 0.6002 0 9
-3.7116 -8.2746 -3.2431 0.3992 0 9
-3.5299 -8.3644 -3.2466 0.3537 0 9
-3.2960 -8.3241 -3.2016 0.3022 0 9
-3.0996 -8.3692 -3.1915 0.4773 0 9
-2.8833 -8.3529 -3.1600 0.5849 0 9
-2.6933 -8.4064 -3.1567 0.5606 0 9
-2.4830 -8.3899 -3.1289 0.2796 0 9
-2.2934 -8.4367 -3.1265 0.5158 0 9
-2.0893 -8.4245 -3.1039 0.5206 0 9
-1.8892 -8.4176 -3.0851 0.8137 0 9
-1.7018 -8.4621 -3.0867 0.6582 0 9
-1.5180 -8.5291 -3.0980 0.2813 0 8
-1.3020 -8.3977 -3.0390 0.2868 0 8
-1.0934 -8.2666 -2.9819 0.2923 0 8
-0.8952 -8.1667 -2.9380 0.9756 0 8
-0.7106 -8.1603 -2.9292 0.9785 0 8
-0.5270 -8.1537 -2.9219 0.9810 0 8
-0.3442 -8.1469 -2.9160 0.9830 0 8
-0.1602 -8.0483 -2.8787 0.3358 0 8
1.1363 3.3561 -1.3578 0.6163 0 10
1.0777 3.4335 -1.3791 0.4837 0 10
1.0175 3.5142 -1.4020 0.4748 0 10
0.9559 3.6006 -1.4276 0.4426 0 10
1.4090 5.8286 -2.2980 0.4030 0 8
1.2958 5.9375 -2.3289 0.3977 0 8
1.1789 6.0468 -2.3609 0.3923 0 8
1.0582 6.1564 -2.3938 0.3869 0 8
0.9337 6.2664 -2.4279 0.3815 0 8
0.8051 6.3766 -2.4630 0.3760 0 8
0.6723 6.4872 -2.4993 0.3706 0 8
0.5353 6.5980 -2.5368 0.3651 0 8
0.3938 6.7090 -2.5755 0.3596 0 8
0.2477 6.8203 -2.6154 0.3541 0 8
0.0970 6.9316 -2.6566 0.3486 0 8
-0.0587 7.0431 -2.6991 0.3431 0 8
-0.2194 7.1546 -2.7430 0.3376 0 8
-0.3852 7.2660 -2.7884 0.3321 0 8
-0.5565 7.3774 -2.8352 0.3267 0 8
-0.7333 7.4886 -2.8835 0.3212 0 8
-0.9158 7.5997 -2.9334 0.3157 0 8
-1.1043 7.7104 -2.9849 0.3103 0 8
-1.2811 7.7139 -2.9966 0.9445 0 20
-1.4602 7.7223 -3.0118 0.7433 0 20
-1.7069 8.0397 -3.1496 0.2940 0 8
-1.8309 7.7660 -3.0577 0.2711 0 20
-1.9867 7.6574 -3.0316 0.8688 0 20
-2.1743 7.6721 -3.0559 0.8907 0 20
-2.6054 8.4680 -3.3952 0.2728 0 8
-2.8484 8.5722 -3.4616 0.2675 0 8
-3.0777 8.6147 -3.5057 0.8765 0 1
-3.2968 8.6163 -3.5354 0.8692 0 1
-3.5199 8.6178 -3.5674 0.8614 0 1
-4.3953 5.7150 -2.7629 0.8346 0 9
-4.4625 5.5419 -2.7267 0.8373 0 9
-4.5729 5.4265 -2.7195 0.9931 0 9
-4.7077 5.3399 -2.7280 0.7207 0 9
-4.9142 5.3295 -2.7781 0.7077 0 9
-4.2763 -8.2698 -3.5678 0.3886 0 9
-4.0601 -8.3008 -3.5411 0.5837 0 9
-3.8129 -8.2573 -3.4854 0.5554 0 9
-3.6269 -8.3386 -3.4847 0.5555 0 9
-3.4640 -8.4765 -3.5091 0.4985 0 9
-3.2418 -8.4676 -3.4746 0.4919 0 9
-3.0451 -8.5185 -3.4667 0.8022 0 9
-2.8192 -8.4791 -3.4242 0.6328 0 9
-2.6074 -8.4689 -3.3958 0.2727 0 8
-2.3720 -8.3634 -3.3314 0.2780 0 8
-2.1438 -8.2567 -3.2691 0.2833 0 8
-1.9263 -8.1639 -3.2145 0.8479 0 8
-1.7334 -8.1566 -3.1956 0.9532 0 8
-1.5430 -8.1513 -3.1792 0.9581 0 8
-1.3544 -8.1458 -3.1645 0.9626 0 8
-1.1674 -8.1401 -3.1513 0.9666 0 8
-0.9694 -8.0312 -3.1001 0.3314 0 8
-0.7770 -7.9195 -3.0495 0.3369 0 8
-0.5904 -7.8073 -3.0005 0.3424 0 8
-0.4094 -7.6949 -2.9530 0.3479 0 8
-0.2337 -7.5768 -2.9050 0.3376 0 7
-0.0635 -7.4588 -2.8584 0.3431 0 7
0.1013 -7.3408 -2.8134 0.3486 0 7
0.2610 -7.2229 -2.7697 0.3541 0 7
0.4157 -7.1051 -2.7275 0.3596 0 7
0.5655 -6.9875 -2.6865 0.3650 0 7
0.7107 -6.8702 -2.6468 0.3705 0 7
0.8513 -6.7531 -2.6084 0.3760 0 7
0.9875 -6.6363 -2.5712 0.3814 0 7
1.1194 -6.5199 -2.5351 0.3868 0 7
1.2472 -6.4038 -2.5002 0.3922 0 7
1.3710 -6.2881 -2.4663 0.3976 0 7
1.4910 -6.1728 -2.4336 0.4030 0 7
1.6071 -6.0579 -2.4018 0.4083 0 7
1.7196 -5.9435 -2.3711 0.4136 0 7
1.8286 -5.8295 -2.3413 0.4189 0 7
1.9341 -5.7159 -2.3124 0.4241 0 7
2.0363 -5.6028 -2.2845 0.4293 0 7
2.1352 -5.4902 -2.2575 0.4344 0 7
2.2310 -5.3781 -2.2313 0.4395 0 7
2.3238 -5.2664 -2.2059 0.4446 0 6
2.4136 -5.1552 -2.1814 0.4496 0 6
2.5005 -5.0445 -2.1576 0.4545 0 7
2.5846 -4.9343 -2.1346 0.4594 0 7
2.6660 -4.8246 -2.1124 0.4643 0 7
2.7448 -4.7153 -2.0909 0.4690 0 7
2.8210 -4.6066 -2.0700 0.4738 0 7
2.8946 -4.4983 -2.0499 0.4784 0 7
2.9659 -4.3905 -2.0304 0.4830 0 7
3.0347 -4.2831 -2.0116 0.4875 0 7
3.1013 -4.1762 -1.9934 0.4920 0 7
3.1655 -4.0698 -1.9758 0.4963 0 7
3.2276 -3.9638 -1.9589 0.5006 0 7
3.2876 -3.8582 -1.9425 0.5049 0 7
3.3454 -3.7531 -1.9267 0.5090 0 7
3.4012 -3.6484 -1.9114 0.5131 0 7
3.4550 -3.5441 -1.8967 0.5170 0 7
3.5068 -3.4402 -1.8826 0.5209 0 7
3.5567 -3.3367 -1.8689 0.5247 0 7
3.6048 -3.2336 -1.8558 0.5284 0 7
3.6510 -3.1309 -1.8431 0.5321 0 7
3.6955 -3.0285 -1.8310 0.5356 0 7
3.7382 -2.9265 -1.8193 0.5390 0 7
3.7792 -2.8249 -1.8081 0.5424 0 7
3.8185 -2.7236 -1.7974 0.5456 0 7
3.8561 -2.6226 -1.7871 0.5488 0 7
3.8921 -2.5219 -1.7773 0.5518 0 7
3.9265 -2.4215 -1.7679 0.5547 0 7
3.9594 -2.3214 -1.7589 0.5576 0 7
3.9907 -2.2216 -1.7503 0.5603 0 7
4.0205 -2.1221 -1.7422 0.5629 0 7
4.0488 -2.0228 -1.7344 0.5654 0 7
4.0756 -1.9238 -1.7271 0.5678 0 7
4.1010 -1.8250 -1.7202 0.5701 0 6
4.1249 -1.7264 -1.7136 0.5723 0 7
4.1475 -1.6280 -1.7075 0.5744 0 6
4.1686 -1.5299 -1.7017 0.5763 0 7
4.1884 -1.4319 -1.6963 0.5781 0 7
4.2068 -1.3341 -1.6912 0.5799 0 7
4.2238 -1.2365 -1.6866 0.5815 0 7
4.2396 -1.1390 -1.6823 0.5829 0 7
4.2540 -1.0416 -1.6784 0.5843 0 7
4.2670 -0.9444 -1.6748 0.5856 0 7
4.2788 -0.8473 -1.6716 0.5867 0 7
4.2893 -0.7503 -1.6687 0.5877 0 7
4.2985 -0.6534 -1.6662 0.5886 0 7
4.3064 -0.5566 -1.6640 0.5893 0 7
4.3130 -0.4599 -1.6622 0.5900 0 7
4.3184 -0.3632 -1.6607 0.5905 0 7
4.3225 -0.2665 -1.6596 0.5909 0 7
4.3254 -0.1699 -1.6588 0.5912 0 7
4.3269 -0.0733 -1.6584 0.5913 0 7
4.3273 0.0233 -1.6583 0.5914 0 7
4.3263 0.1199 -1.6586 0.5913 0 7
4.3242 0.2165 -1.6592 0.5911 0 7
4.3207 0.3131 -1.6601 0.5907 0 7
4.3160 0.4098 -1.6614 0.5903 0 7
4.3100 0.5065 -1.6630 0.5897 0 7
4.3027 0.6033 -1.6650 0.5890 0 7
4.2942 0.7001 -1.6673 0.5882 0 7
4.2844 0.7970 -1.6700 0.5872 0 7
4.2733 0.8941 -1.6731 0.5862 0 7
4.2609 0.9912 -1.6765 0.5850 0 7
4.2472 1.0885 -1.6802 0.5837 0 7
4.2322 1.1859 -1.6843 0.5822 0 7
4.2158 1.2835 -1.6888 0.5807 0 7
4.1981 1.3812 -1.6936 0.5790 0 7
4.1790 1.4791 -1.6988 0.5773 0 7
4.1586 1.5771 -1.7044 0.5754 0 7
4.1368 1.6754 -1.7104 0.5734 0 7
4.1136 1.7739 -1.7167 0.5713 0 6
4.0889 1.8725 -1.7235 0.5690 0 7
4.0629 1.9715 -1.7306 0.5667 0 7
4.0353 2.0706 -1.7381 0.5642 0 7
4.0063 2.1700 -1.7460 0.5617 0 7
3.9758 2.2697 -1.7544 0.5590 0 7
3.9437 2.3696 -1.7631 0.5562 0 7
3.9101 2.4698 -1.7723 0.5533 0 7
3.8750 2.5704 -1.7819 0.5503 0 7
3.8382 2.6712 -1.7920 0.5473 0 7
3.7997 2.7723 -1.8025 0.5441 0 7
3.7596 2.8738 -1.8135 0.5408 0 7
3.7178 2.9756 -1.8249 0.5374 0 7
3.6743 3.0778 -1.8368 0.5339 0 7
3.2596 2.8566 -1.6609 0.6130 0 10
3.1167 2.8568 -1.6202 0.6365 0 10
2.9826 2.8590 -1.5833 0.6928 0 10
2.8604 2.8670 -1.5520 0.7484 0 10
2.7338 2.8653 -1.5176 0.6547 0 10
2.6127 2.8637 -1.4855 0.6726 0 10
2.5010 2.8673 -1.4581 0.7345 0 10
2.3936 2.8710 -1.4324 0.7477 0 10
2.2898 2.8746 -1.4084 0.7606 0 10
2.1913 2.8805 -1.3870 0.8355 0 10
2.1001 2.8925 -1.3698 0.8422 0 10
2.0137 2.9078 -1.3554 0.8433 0 10
1.9251 2.9169 -1.3393 0.9094 0 10
1.8426 2.9321 -1.3271 0.9220 0 10
1.7684 2.9587 -1.3209 0.9193 0 10
1.6984 2.9912 -1.3182 0.9198 0 10
1.6291 3.0244 -1.3164 0.9096 0 10
1.5598 3.0572 -1.3152 0.9367 0 10
1.4872 3.0831 -1.3118 0.9349 0 10
1.4148 3.1084 -1.3088 0.9884 0 10
1.3490 3.1485 -1.3127 0.7431 0 10
1.2866 3.1982 -1.3211 0.6503 0 10
1.2288 3.2629 -1.3361 0.6464 0 10
1.1684 3.3258 -1.3509 0.6118 0 10
1.1076 3.3931 -1.3678 0.4877 0 10
1.0485 3.4728 -1.3902 0.4789 0 10
0.9876 3.5561 -1.4143 0.4466 0 10
1.0072 3.9681 -1.5689 0.3524 0 10
1.3540 5.8819 -2.3130 0.4004 0 8
1.2390 5.9910 -2.3444 0.3950 0 8
1.1202 6.1004 -2.3769 0.3896 0 8
0.9977 6.2102 -2.4104 0.3842 0 8
0.8711 6.3204 -2.4450 0.3788 0 8
0.7405 6.4308 -2.4807 0.3733 0 8
0.6057 6.5415 -2.5175 0.3679 0 8
0.4665 6.6524 -2.5556 0.3624 0 8
0.3228 6.7635 -2.5949 0.3569 0 8
0.1745 6.8748 -2.6354 0.3514 0 8
0.0213 6.9862 -2.6773 0.3459 0 8
-0.1368 7.0977 -2.7205 0.3404 0 8
-0.3000 7.2092 -2.7651 0.3349 0 8
-0.4685 7.3206 -2.8111 0.3295 0 8
-0.6424 7.4319 -2.8587 0.3240 0 8
-0.8220 7.5431 -2.9078 0.3185 0 8
-1.0074 7.6540 -2.9584 0.3131 0 8
-1.1960 7.7465 -3.0038 0.9423 0 20
-1.3624 7.6828 -2.9901 0.9466 0 20
-1.5631 7.7981 -3.0478 0.0930 0 20
-1.8110 8.0930 -3.1781 0.2914 0 8
-1.8916 7.6482 -3.0192 0.8723 0 20
-2.0785 7.6653 -3.0436 0.8943 0 20
-2.4844 8.4143 -3.3621 0.2755 0 8
-2.7235 8.5192 -3.4275 0.2702 0 8
-2.9673 8.6139 -3.4914 0.8801 0 1
-3.1846 8.6155 -3.5199 0.8730 0 1
-3.4056 8.6171 -3.5508 0.8654 0 1
-4.4515 5.9264 -2.8404 0.1735 0 9
-4.4290 5.6303 -2.7452 0.8399 0 9
-4.5070 5.4735 -2.7171 0.9940 0 9
-4.6363 5.3812 -2.7220 0.9922 0 9
-4.8079 5.3348 -2.7522 0.7144 0 9
-4.1547 -8.2546 -3.5414 0.6582 0 9
-3.9526 -8.3101 -3.5265 0.3744 0 9
-3.7219 -8.2975 -3.4850 0.5554 0 9
-3.5353 -8.3773 -3.4845 0.2661 0 9
-3.3126 -8.3662 -3.4482 0.2849 0 9
-3.1174 -8.4171 -3.4397 0.8085 0 9
-2.9049 -8.4155 -3.4117 0.3818 0 9
-2.7304 -8.5222 -3.4294 0.2701 0 8
-2.4911 -8.4173 -3.3640 0.2753 0 8
-2.2609 -8.3172 -3.3030 0.8370 0 8
-2.0346 -8.2041 -3.2392 0.2859 0 8
-1.8312 -8.1592 -3.2045 0.9506 0 8
-1.6398 -8.1540 -3.1873 0.9557 0 8
-1.4503 -8.1486 -3.1718 0.9604 0 8
-1.2625 -8.1430 -3.1578 0.9646 0 8
-1.0698 -8.0881 -3.1265 0.3286 0 8
-0.8744 -7.9765 -3.0751 0.3341 0 8
-0.6849 -7.8646 -3.0253 0.3396 0 8
-0.5010 -7.7523 -2.9770 0.3451 0 8
-0.3227 -7.6370 -2.9293 0.3348 0 7
-0.1497 -7.5190 -2.8820 0.3403 0 7
1.0969 3.2397 -1.3999 0.6188 0 10
1.0349 3.2971 -1.4143 0.5643 0 10
1.0136 3.5009 -1.4917 0.3057 0 10
0.9858 3.7131 -1.5723 0.5121 0 10
1.0139 4.1942 -1.7660 0.2792 0 10
1.2235 5.6066 -2.3487 0.4174 0 8
1.1123 5.7054 -2.3791 0.4121 0 8
0.9977 5.8043 -2.4104 0.4067 0 8
0.8795 5.9031 -2.4427 0.4013 0 8
0.7578 6.0020 -2.4760 0.3959 0 8
0.6323 6.1008 -2.5103 0.3905 0 8
0.5029 6.1995 -2.5456 0.3851 0 8
0.3697 6.2980 -2.5820 0.3797 0 8
0.2323 6.3963 -2.6196 0.3742 0 8
0.0909 6.4944 -2.6583 0.3688 0 8
-0.0549 6.5921 -2.6981 0.3633 0 8
-0.2051 6.6895 -2.7391 0.3579 0 8
-0.3598 6.7865 -2.7814 0.3525 0 8
-0.5192 6.8829 -2.8250 0.3470 0 8
-0.6834 6.9787 -2.8699 0.3416 0 8
-0.8524 7.0738 -2.9161 0.3362 0 8
-1.0266 7.1682 -2.9637 0.3308 0 8
-1.2059 7.2616 -3.0127 0.3254 0 8
-1.3906 7.3541 -3.0632 0.3200 0 8
-1.5808 7.4454 -3.1152 0.3147 0 8
-1.7765 7.5356 -3.1687 0.3094 0 8
-1.9781 7.6243 -3.2237 0.3041 0 8
-2.1855 7.7116 -3.2804 0.2988 0 8
-2.3990 7.7971 -3.3388 0.2936 0 8
-2.6187 7.8809 -3.3988 0.2884 0 8
-2.8447 7.9626 -3.4606 0.2833 0 8
-3.0772 8.0421 -3.5242 0.2782 0 8
-3.3163 8.1193 -3.5895 0.2731 0 8
-3.5621 8.1938 -3.6567 0.2681 0 8
-3.8148 8.2655 -3.7258 0.2631 0 8
-4.3697 5.6817 -2.9335 0.7914 0 9
-4.4361 5.5091 -2.8948 0.9637 0 9
-4.5489 5.3981 -2.8891 0.9656 0 9
-4.7013 5.3327 -2.9096 0.6345 0 9
-6.9216 5.4801 -3.6132 0.8038 0 19
-6.9380 5.2454 -3.5598 0.8159 0 19
-7.0944 5.1190 -3.5805 0.5235 0 19
-7.4086 5.0981 -3.6807 0.5188 0 19
-3.8170 -8.2661 -3.7264 0.2631 0 8
-3.5642 -8.1944 -3.6573 0.2681 0 8
-3.3315 -8.1521 -3.6043 0.8946 0 8
-3.1198 -8.1489 -3.5712 0.9029 0 8
-2.9118 -8.1455 -3.5403 0.9107 0 8
-2.7071 -8.1418 -3.5116 0.9182 0 8
-2.5055 -8.1379 -3.4849 0.9252 0 8
-2.3068 -8.1337 -3.4602 0.9318 0 8
-2.0916 -8.0555 -3.4062 0.3192 0 8
-1.8797 -7.9663 -3.3499 0.3246 0 8
-1.6736 -7.8755 -3.2952 0.3300 0 8
-1.4733 -7.7834 -3.2421 0.3354 0 8
-1.2786 -7.6900 -3.1905 0.3408 0 8
-1.0886 -7.5911 -3.1386 0.3307 0 7
-0.9042 -7.4912 -3.0882 0.3361 0 7
-0.7251 -7.3905 -3.0393 0.3416 0 7
-0.5512 -7.2890 -2.9917 0.3470 0 7
-0.3824 -7.1869 -2.9456 0.3524 0 7
-0.2185 -7.0843 -2.9008 0.3579 0 7
-0.0595 -6.9812 -2.8573 0.3633 0 7
0.0949 -6.8777 -2.8151 0.3687 0 7
0.2448 -6.7738 -2.7742 0.3742 0 7
0.3902 -6.6697 -2.7344 0.3796 0 7
0.5314 -6.5654 -2.6958 0.3851 0 7
0.6683 -6.4609 -2.6584 0.3905 0 7
0.8013 -6.3563 -2.6221 0.3959 0 7
0.9302 -6.2516 -2.5868 0.4013 0 7
1.0554 -6.1469 -2.5526 0.4067 0 7
1.1768 -6.0423 -2.5194 0.4120 0 7
1.2946 -5.9376 -2.4872 0.4174 0 7
1.4089 -5.8331 -2.4560 0.4227 0 7
1.5197 -5.7286 -2.4257 0.4279 0 7
1.6273 -5.6243 -2.3963 0.4332 0 7
1.7315 -5.5202 -2.3678 0.4384 0 7
1.8327 -5.4162 -2.3402 0.4436 0 7
1.9307 -5.3124 -2.3134 0.4487 0 7
2.0258 -5.2088 -2.2874 0.4538 0 6
2.1179 -5.1054 -2.2622 0.4589 0 7
2.2073 -5.0023 -2.2378 0.4639 0 7
2.2938 -4.8994 -2.2141 0.4688 0 7
2.3777 -4.7968 -2.1912 0.4737 0 7
2.4590 -4.6945 -2.1690 0.4786 0 7
2.5377 -4.5924 -2.1474 0.4834 0 7
2.6140 -4.4906 -2.1266 0.4881 0 7
2.6878 -4.3891 -2.1064 0.4928 0 7
2.7593 -4.2879 -2.0869 0.4974 0 7
2.8284 -4.1870 -2.0680 0.5020 0 7
2.8953 -4.0864 -2.0497 0.5064 0 7
2.9600 -3.9860 -2.0320 0.5109 0 7
3.0226 -3.8860 -2.0149 0.5152 0 7
3.0831 -3.7863 -1.9984 0.5194 0 7
3.1415 -3.6868 -1.9824 0.5236 0 7
3.1979 -3.5877 -1.9670 0.5277 0 7
3.2524 -3.4888 -1.9521 0.5318 0 7
3.3050 -3.3902 -1.9377 0.5357 0 7
3.3556 -3.2919 -1.9239 0.5396 0 7
3.4045 -3.1939 -1.9105 0.5433 0 7
3.4515 -3.0961 -1.8977 0.5470 0 7
3.4968 -2.9986 -1.8853 0.5506 0 7
3.5404 -2.9014 -1.8734 0.5541 0 7
3.5822 -2.8044 -1.8620 0.5575 0 7
3.6224 -2.7077 -1.8510 0.5608 0 7
3.6610 -2.6112 -1.8404 0.5640 0 7
3.6979 -2.5150 -1.8303 0.5671 0 7
3.7333 -2.4190 -1.8207 0.5702 0 7
3.7671 -2.3232 -1.8114 0.5731 0 7
3.7994 -2.2277 -1.8026 0.5759 0 7
3.8302 -2.1323 -1.7942 0.5786 0 7
3.8596 -2.0371 -1.7862 0.5812 0 7
3.8874 -1.9422 -1.7785 0.5837 0 7
3.9138 -1.8474 -1.7713 0.5860 0 6
3.9388 -1.7528 -1.7645 0.5883 0 7
3.9624 -1.6584 -1.7580 0.5905 0 6
3.9846 -1.5641 -1.7520 0.5925 0 6
4.0055 -1.4700 -1.7463 0.5944 0 7
4.0250 -1.3760 -1.7409 0.5963 0 7
4.0431 -1.2822 -1.7360 0.5980 0 7
4.0600 -1.1885 -1.7314 0.5996 0 7
4.0755 -1.0949 -1.7271 0.6010 0 7
4.0897 -1.0014 -1.7233 0.6024 0 7
4.1026 -0.9080 -1.7197 0.6036 0 7
4.1142 -0.8147 -1.7165 0.6047 0 7
4.1246 -0.7215 -1.7137 0.6057 0 7
4.1337 -0.6284 -1.7112 0.6066 0 7
4.1415 -0.5353 -1.7091 0.6074 0 7
4.1480 -0.4423 -1.7073 0.6080 0 7
4.1533 -0.3493 -1.7059 0.6085 0 7
4.1574 -0.2563 -1.7047 0.6089 0 7
4.1602 -0.1634 -1.7040 0.6092 0 7
4.1618 -0.0705 -1.7036 0.6094 0 7
4.1621 0.0224 -1.7035 0.6094 0 7
4.1612 0.1153 -1.7037 0.6093 0 7
4.1590 0.2082 -1.7043 0.6091 0 7
4.1556 0.3011 -1.7052 0.6087 0 7
4.1509 0.3941 -1.7065 0.6083 0 7
4.1450 0.4871 -1.7081 0.6077 0 7
4.1379 0.5801 -1.7101 0.6070 0 7
4.1294 0.6732 -1.7124 0.6062 0 7
4.1197 0.7664 -1.7150 0.6053 0 7
4.1088 0.8597 -1.7180 0.6042 0 7
4.0965 0.9530 -1.7214 0.6030 0 7
4.0830 1.0464 -1.7251 0.6017 0 7
4.0682 1.1400 -1.7291 0.6003 0 7
4.0520 1.2336 -1.7335 0.5988 0 7
4.0346 1.3274 -1.7383 0.5972 0 7
4.0158 1.4213 -1.7435 0.5954 0 7
3.9956 1.5153 -1.7490 0.5935 0 7
3.9741 1.6095 -1.7548 0.5915 0 7
3.9512 1.7039 -1.7611 0.5894 0 7
3.9270 1.7984 -1.7677 0.5872 0 6
3.9013 1.8931 -1.7747 0.5849 0 7
3.8742 1.9879 -1.7822 0.5825 0 7
3.8456 2.0829 -1.7900 0.5799 0 7
3.8156 2.1782 -1.7982 0.5773 0 7
3.7841 2.2737 -1.8068 0.5745 0 7
3.7510 2.3693 -1.8158 0.5717 0 7
3.7165 2.4652 -1.8253 0.5687 0 7
3.6803 2.5613 -1.8351 0.5657 0 7
3.6426 2.6577 -1.8455 0.5625 0 7
3.6033 2.7543 -1.8562 0.5592 0 7
3.5623 2.8511 -1.8674 0.5559 0 7
3.5196 2.9482 -1.8791 0.5524 0 7
3.4752 3.0456 -1.8912 0.5489 0 7
3.1165 2.8566 -1.7302 0.6234 0 10
2.9796 2.8561 -1.6892 0.6462 0 10
2.8507 2.8573 -1.6519 0.7019 0 10
2.7322 2.8637 -1.6199 0.7338 0 10
2.6179 2.8694 -1.5897 0.6664 0 10
2.5016 2.8679 -1.5575 0.6743 0 10
2.3897 2.8664 -1.5273 0.7423 0 10
2.2861 2.8700 -1.5017 0.7550 0 10
2.1783 2.8635 -1.4725 0.7811 0 10
2.0814 2.8667 -1.4499 0.8302 0 10
1.9917 2.8761 -1.4318 0.9021 0 10
1.9087 2.8921 -1.4182 0.9037 0 10
1.8289 2.9105 -1.4069 0.9453 0 10
1.7502 2.9284 -1.3963 0.9367 0 10
1.6723 2.9452 -1.3862 0.9458 0 10
1.5991 2.9688 -1.3801 0.9195 0 10
1.5299 2.9987 -1.3778 0.9284 0 10
1.4602 3.0272 -1.3756 0.9061 0 10
1.3904 3.0548 -1.3737 0.9141 0 10
1.3229 3.0876 -1.3748 0.9051 0 10
1.2568 3.1241 -1.3782 0.9028 0 10
1.1912 3.1630 -1.3833 0.8891 0 10
1.1278 3.2103 -1.3926 0.6283 0 10
1.0665 3.2673 -1.4067 0.5910 0 10
1.0044 3.3270 -1.4223 0.6090 0 10
1.0050 3.6189 -1.5372 0.3020 0 10
1.0081 3.9719 -1.6772 0.1666 0 10
1.2790 5.5562 -2.3335 0.4201 0 8
1.1695 5.6550 -2.3634 0.4148 0 8
1.0566 5.7539 -2.3943 0.4094 0 8
0.9402 5.8527 -2.4261 0.4041 0 8
0.8203 5.9516 -2.4589 0.3987 0 8
0.6967 6.0504 -2.4927 0.3933 0 8
0.5694 6.1492 -2.5275 0.3879 0 8
0.4381 6.2478 -2.5633 0.3824 0 8
0.3029 6.3462 -2.6003 0.3770 0 8
0.1635 6.4444 -2.6384 0.3716 0 8
0.0200 6.5423 -2.6776 0.3661 0 8
-0.1280 6.6399 -2.7181 0.3607 0 8
-0.2803 6.7371 -2.7597 0.3552 0 8
-0.4373 6.8338 -2.8026 0.3498 0 8
-0.5990 6.9299 -2.8468 0.3444 0 8
-0.7656 7.0254 -2.8923 0.3389 0 8
-0.9371 7.1201 -2.9392 0.3335 0 8
-1.1138 7.2141 -2.9875 0.3281 0 8
-1.2958 7.3070 -3.0373 0.3228 0 8
-1.4831 7.3990 -3.0885 0.3174 0 8
-1.6760 7.4898 -3.1412 0.3121 0 8
-1.8746 7.5792 -3.1955 0.3068 0 8
-2.0790 7.6673 -3.2513 0.3015 0 8
-2.2894 7.7537 -3.3088 0.2963 0 8
-2.5059 7.8384 -3.3680 0.2911 0 8
-2.7286 7.9212 -3.4289 0.2859 0 8
-2.9578 8.0018 -3.4915 0.2808 0 8
-3.1935 8.0802 -3.5560 0.2757 0 8
-3.4359 8.1561 -3.6222 0.2706 0 8
-3.6851 8.2293 -3.6903 0.2657 0 8
-3.9412 8.2995 -3.7603 0.2607 0 8
-4.3390 5.7768 -2.9569 0.7852 0 9
-4.3986 5.5916 -2.9117 0.7974 0 9
-4.4915 5.4547 -2.8919 0.9646 0 9
-4.6046 5.3444 -2.8872 0.9902 0 9
-4.8169 5.3448 -2.9448 0.6269 0 9
-6.9297 5.3643 -3.5866 0.8098 0 19
-6.9323 5.1230 -3.5279 0.8217 0 19
-7.2531 5.1138 -3.6322 0.5161 0 19
-3.9513 -8.3072 -3.7649 0.7773 0 8
-3.6922 -8.2313 -3.6923 0.2655 0 8
-3.4433 -8.1593 -3.6246 0.7960 0 8
-3.2273 -8.1506 -3.5878 0.8987 0 8
-3.0174 -8.1473 -3.5558 0.9068 0 8
-2.8111 -8.1437 -3.5260 0.9144 0 8
-2.6080 -8.1399 -3.4983 0.9217 0 8
-2.4078 -8.1359 -3.4726 0.9285 0 8
-2.2019 -8.1004 -3.4356 0.3165 0 8
-1.9870 -8.0120 -3.3784 0.3218 0 8
-1.7780 -7.9219 -3.3229 0.3272 0 8
-1.5748 -7.8305 -3.2690 0.3326 0 8
-1.3772 -7.7378 -3.2166 0.3380 0 8
-1.1848 -7.6417 -3.1649 0.3280 0 7
-0.9976 -7.5423 -3.1137 0.3334 0 7
-0.8158 -7.4419 -3.0640 0.3388 0 7
-0.6393 -7.3408 -3.0158 0.3442 0 7
-0.4679 -7.2391 -2.9690 0.3496 0 7
-0.3015 -7.1367 -2.9235 0.3551 0 7
-0.1400 -7.0338 -2.8793 0.3605 0 7
1.0800 3.1899 -1.4677 0.3208 0 10
1.0464 3.3337 -1.5228 0.5461 0 10
1.0122 3.4960 -1.5862 0.4282 0 10
0.9924 3.7379 -1.6855 0.3610 0 10
0.9662 3.9970 -1.7921 0.4009 0 10
1.1578 5.3054 -2.3666 0.4369 0 8
1.0518 5.3952 -2.3956 0.4316 0 8
0.9428 5.4848 -2.4254 0.4263 0 8
0.8305 5.5741 -2.4561 0.4210 0 8
0.7150 5.6631 -2.4877 0.4157 0 8
0.5961 5.7518 -2.5202 0.4103 0 8
0.4738 5.8401 -2.5536 0.4049 0 8
0.3479 5.9280 -2.5880 0.3995 0 8
0.2185 6.0154 -2.6234 0.3942 0 8
0.0854 6.1023 -2.6598 0.3888 0 8
-0.0516 6.1886 -2.6972 0.3834 0 8
-0.1924 6.2741 -2.7357 0.3780 0 8
-0.3372 6.3590 -2.7752 0.3726 0 8
-0.4860 6.4430 -2.8159 0.3672 0 8
-0.6390 6.5260 -2.8578 0.3618 0 8
-0.7963 6.6081 -2.9007 0.3565 0 8
-0.9580 6.6890 -2.9449 0.3511 0 8
-1.1241 6.7687 -2.9903 0.3458 0 8
-1.2948 6.8471 -3.0370 0.3405 0 8
-1.4701 6.9241 -3.0849 0.3352 0 8
-1.6502 6.9995 -3.1341 0.3299 0 8
-1.8351 7.0732 -3.1847 0.3247 0 8
-2.0250 7.1450 -3.2366 0.3195 0 8
-2.2199 7.2149 -3.2898 0.3143 0 8
-2.4199 7.2826 -3.3445 0.3092 0 8
-2.6251 7.3480 -3.4006 0.3041 0 8
-2.8356 7.4109 -3.4581 0.2990 0 8
-3.0515 7.4711 -3.5172 0.2940 0 8
-3.2728 7.5284 -3.5776 0.2890 0 8
-3.4996 7.5826 -3.6396 0.2841 0 8
-3.7320 7.6336 -3.7031 0.2792 0 8
-3.9700 7.6810 -3.7682 0.2744 0 8
-4.2136 7.7246 -3.8348 0.2696 0 8
-4.4628 7.7641 -3.9029 0.2649 0 8
-3.9142 6.4710 -3.2960 0.5244 0 19
-4.2907 5.8444 -3.1598 0.3137 0 9
-4.3440 5.6483 -3.1055 0.7828 0 9
-4.4312 5.5030 -3.0792 0.9324 0 9
-4.5552 5.4055 -3.0808 0.8736 0 9
-4.7448 5.3820 -3.1270 0.6539 0 9
-6.8663 5.4363 -3.8168 0.8026 0 19
-6.8833 5.2041 -3.7608 0.8146 0 19
-7.0833 5.1109 -3.8067 0.5306 0 19
-8.2184 3.7113 -3.9300 0.7342 0 10
-8.1661 3.4704 -3.8669 0.8284 0 10
-8.1775 3.2617 -3.8369 0.8677 0 10
-8.1996 3.0602 -3.8143 0.9115 0 10
-8.2423 2.8683 -3.8034 0.7391 0 10
-8.3049 2.6838 -3.8037 0.7510 0 10
-8.4143 2.5132 -3.8272 0.5891 0 10
-8.5496 2.3471 -3.8639 0.3828 0 10
-8.7879 2.2029 -3.9484 0.3755 0 10
-4.1945 -8.1115 -3.9798 0.2882 0 8
-3.9443 -8.0640 -3.9123 0.2932 0 8
-3.7000 -8.0128 -3.8465 0.2982 0 8
-3.4615 -7.9583 -3.7823 0.3032 0 8
-3.2287 -7.9006 -3.7197 0.3083 0 8
-3.0015 -7.8400 -3.6587 0.3135 0 8
-2.7799 -7.7766 -3.5992 0.3187 0 8
-2.5637 -7.7106 -3.5413 0.3239 0 8
-2.3523 -7.6403 -3.4840 0.3143 0 7
-2.1459 -7.5664 -3.4276 0.3194 0 7
-1.9448 -7.4903 -3.3726 0.3246 0 7
-1.7490 -7.4123 -3.3191 0.3299 0 7
-1.5582 -7.3325 -3.2670 0.3351 0 7
-1.3725 -7.2510 -3.2162 0.3404 0 7
-1.1918 -7.1680 -3.1668 0.3457 0 7
-1.0159 -7.0836 -3.1187 0.3511 0 7
-0.8446 -6.9979 -3.0719 0.3564 0 7
-0.6781 -6.9110 -3.0264 0.3618 0 7
-0.5160 -6.8231 -2.9821 0.3672 0 7
-0.3583 -6.7342 -2.9390 0.3725 0 7
-0.2050 -6.6444 -2.8971 0.3779 0 7
-0.0558 -6.5537 -2.8563 0.3833 0 7
0.0892 -6.4624 -2.8167 0.3887 0 7
0.2302 -6.3704 -2.7782 0.3941 0 7
0.3673 -6.2779 -2.7407 0.3995 0 7
0.5006 -6.1848 -2.7043 0.4049 0 7
0.6301 -6.0913 -2.6688 0.4103 0 7
0.7560 -5.9974 -2.6344 0.4156 0 7
0.8784 -5.9031 -2.6010 0.4210 0 7
0.9973 -5.8085 -2.5685 0.4263 0 7
1.1128 -5.7137 -2.5369 0.4316 0 7
1.2251 -5.6187 -2.5062 0.4369 0 7
1.3341 -5.5234 -2.4764 0.4421 0 7
1.4400 -5.4281 -2.4475 0.4474 0 7
1.5429 -5.3326 -2.4194 0.4526 0 7
1.6427 -5.2371 -2.3921 0.4577 0 6
1.7397 -5.1415 -2.3656 0.4629 0 7
1.8339 -5.0459 -2.3398 0.4679 0 7
1.9253 -4.9503 -2.3149 0.4730 0 7
2.0139 -4.8547 -2.2906 0.4780 0 7
2.1000 -4.7592 -2.2671 0.4830 0 7
2.1835 -4.6637 -2.2443 0.4879 0 7
2.2645 -4.5683 -2.2221 0.4927 0 7
2.3430 -4.4730 -2.2007 0.4975 0 7
2.4191 -4.3778 -2.1799 0.5023 0 7
2.4930 -4.2827 -2.1597 0.5070 0 7
2.5645 -4.1878 -2.1401 0.5116 0 7
2.6338 -4.0929 -2.1212 0.5162 0 7
2.7009 -3.9983 -2.1028 0.5207 0 7
2.7659 -3.9037 -2.0851 0.5251 0 7
2.8288 -3.8094 -2.0679 0.5295 0 7
2.8897 -3.7151 -2.0512 0.5338 0 7
2.9486 -3.6211 -2.0351 0.5380 0 7
3.0055 -3.5272 -2.0196 0.5421 0 7
3.0605 -3.4335 -2.0046 0.5462 0 7
3.1137 -3.3400 -1.9900 0.5502 0 7
3.1650 -3.2466 -1.9760 0.5541 0 7
3.2145 -3.1534 -1.9625 0.5579 0 7
3.2622 -3.0604 -1.9494 0.5617 0 7
3.3082 -2.9676 -1.9368 0.5653 0 7
3.3525 -2.8749 -1.9247 0.5689 0 7
3.3952 -2.7824 -1.9131 0.5723 0 7
3.4362 -2.6901 -1.9019 0.5757 0 7
