ply
format ascii 1.0
element vertex 1405
property float32 x
property float32 y
property float32 z
property float32 CosAngle
property uint32 ObjIdx
property uint32 ObjTag
end_header
-3.5865 -8.5279 -2.6190 0.5780 0 9
-3.3626 -8.5238 -2.5940 0.7245 0 9
-3.1946 -8.6598 -2.6130 0.6132 0 9
-2.9028 -8.4456 -2.5282 0.5185 0 9
-2.6561 -8.3287 -2.4748 0.2893 0 9
-2.4505 -8.3217 -2.4558 0.2630 0 9
-2.2323 -8.2574 -2.4215 0.3082 0 9
-2.0487 -8.3113 -2.4233 0.3611 0 9
-1.8608 -8.3474 -2.4211 0.2266 0 9
-1.6821 -8.4283 -2.4330 0.9734 0 9
-1.4795 -8.3852 -2.4105 0.7648 0 9
-1.2779 -8.3255 -2.3845 0.5813 0 9
-1.0988 -8.4076 -2.4004 0.6791 0 9
-0.9105 -8.4288 -2.4000 0.6820 0 9
-0.7232 -8.4620 -2.4043 0.8968 0 9
-0.5343 -8.4809 -2.4056 0.6666 0 9
-0.3415 -8.4118 -2.3833 0.2522 0 9
-0.1524 -8.3584 -2.3666 0.4995 0 9
0.0343 -8.3208 -2.3556 0.5839 0 9
0.2246 -8.4849 -2.4028 0.6944 0 9
0.4054 -8.2993 -2.3523 0.3576 0 9
0.5988 -8.4009 -2.3843 0.1256 0 9
0.7944 -8.4715 -2.4087 0.5795 0 9
0.9847 -8.4622 -2.4118 0.9364 0 9
1.1523 -8.2854 -2.3681 0.2977 0 8
1.3242 -8.1775 -2.3451 0.9887 0 8
1.5107 -8.1683 -2.3516 0.9860 0 8
1.6983 -8.1588 -2.3592 0.9828 0 8
1.8557 -8.0131 -2.3285 0.3358 0 8
2.0020 -7.8431 -2.2915 0.3412 0 8
2.1425 -7.6737 -2.2555 0.3310 0 7
2.2760 -7.5006 -2.2190 0.3364 0 7
2.4044 -7.3301 -2.1839 0.3418 0 7
2.5279 -7.1621 -2.1501 0.3472 0 7
2.6467 -6.9965 -2.1177 0.3525 0 7
2.7610 -6.8333 -2.0864 0.3578 0 7
2.8710 -6.6724 -2.0563 0.3630 0 7
2.9769 -6.5136 -2.0274 0.3682 0 7
3.0788 -6.3569 -1.9996 0.3733 0 7
3.1769 -6.2022 -1.9727 0.3784 0 7
3.2713 -6.0495 -1.9469 0.3834 0 7
3.3622 -5.8986 -1.9221 0.3884 0 7
3.4497 -5.7496 -1.8982 0.3933 0 7
3.5339 -5.6023 -1.8752 0.3981 0 7
3.6150 -5.4567 -1.8530 0.4029 0 7
3.6930 -5.3127 -1.8317 0.4075 0 7
3.7681 -5.1703 -1.8111 0.4122 0 6
3.8404 -5.0294 -1.7914 0.4167 0 7
3.9099 -4.8899 -1.7724 0.4212 0 7
3.9767 -4.7518 -1.7541 0.4256 0 7
4.0410 -4.6150 -1.7366 0.4299 0 7
4.1028 -4.4796 -1.7197 0.4341 0 7
4.1622 -4.3454 -1.7034 0.4382 0 7
4.2193 -4.2124 -1.6878 0.4423 0 7
4.2741 -4.0805 -1.6729 0.4462 0 7
4.3267 -3.9498 -1.6585 0.4501 0 7
4.3771 -3.8201 -1.6447 0.4539 0 7
4.4255 -3.6914 -1.6315 0.4576 0 7
4.4719 -3.5637 -1.6188 0.4611 0 7
4.5163 -3.4369 -1.6066 0.4646 0 7
4.5588 -3.3110 -1.5950 0.4680 0 7
4.5994 -3.1860 -1.5839 0.4713 0 7
4.6382 -3.0618 -1.5733 0.4745 0 7
4.6752 -2.9384 -1.5632 0.4775 0 7
4.7104 -2.8158 -1.5536 0.4805 0 7
4.7440 -2.6938 -1.5444 0.4834 0 7
4.7759 -2.5725 -1.5357 0.4861 0 7
4.8062 -2.4519 -1.5274 0.4887 0 7
4.8348 -2.3319 -1.5196 0.4912 0 7
4.8619 -2.2124 -1.5122 0.4937 0 7
4.8875 -2.0935 -1.5052 0.4959 0 7
4.9115 -1.9752 -1.4986 0.4981 0 7
4.9340 -1.8573 -1.4925 0.5002 0 6
4.9551 -1.7398 -1.4867 0.5021 0 7
4.9747 -1.6228 -1.4813 0.5039 0 6
4.9929 -1.5061 -1.4764 0.5056 0 7
5.0097 -1.3899 -1.4718 0.5072 0 7
5.0251 -1.2739 -1.4676 0.5087 0 7
5.0391 -1.1583 -1.4637 0.5100 0 7
5.0518 -1.0430 -1.4603 0.5112 0 7
4.1825 -0.7665 -1.2038 0.2103 24 10
4.0040 -0.6417 -1.1480 0.6329 24 10
3.9247 -0.5393 -1.1215 0.6443 24 10
3.8558 -0.4423 -1.0987 0.8813 24 10
3.8411 -0.3539 -1.0920 0.8867 24 10
3.8267 -0.2665 -1.0859 0.8941 24 10
3.8169 -0.1802 -1.0817 0.9145 24 10
3.8117 -0.0947 -1.0794 0.9164 24 10
3.8072 -0.0095 -1.0778 0.9075 24 10
3.8106 0.0757 -1.0790 0.9168 24 10
3.8157 0.1611 -1.0812 0.9149 24 10
3.8233 0.2471 -1.0846 0.8952 24 10
3.8379 0.3343 -1.0906 0.8879 24 10
3.8525 0.4225 -1.0972 0.8826 24 10
3.9069 0.5171 -1.1157 0.6477 24 10
3.9865 0.6186 -1.1420 0.6362 24 10
4.0909 0.7287 -1.1763 0.1985 24 10
5.0544 1.0174 -1.4596 0.5114 0 7
5.0421 1.1327 -1.4629 0.5103 0 7
5.0283 1.2482 -1.4667 0.5090 0 7
5.0133 1.3641 -1.4708 0.5075 0 7
4.9968 1.4803 -1.4753 0.5060 0 7
4.9789 1.5968 -1.4802 0.5043 0 7
4.9596 1.7138 -1.4855 0.5025 0 6
4.9388 1.8311 -1.4912 0.5006 0 6
4.9166 1.9489 -1.4972 0.4986 0 7
4.8929 2.0672 -1.5037 0.4964 0 7
4.8677 2.1860 -1.5106 0.4942 0 7
4.8410 2.3053 -1.5179 0.4918 0 7
4.8127 2.4252 -1.5256 0.4893 0 7
4.7828 2.5457 -1.5338 0.4867 0 7
4.7512 2.6668 -1.5424 0.4840 0 7
4.7181 2.7886 -1.5515 0.4811 0 7
4.6832 2.9111 -1.5610 0.4782 0 7
4.6466 3.0343 -1.5710 0.4752 0 7
4.1681 2.8567 -1.4305 0.5436 0 10
3.9751 2.8570 -1.3858 0.5626 0 10
3.8037 2.8649 -1.3481 0.6709 0 10
3.6288 2.8625 -1.3084 0.5487 0 10
3.4569 2.8544 -1.2691 0.5682 0 10
3.3012 2.8523 -1.2351 0.6400 0 10
3.1584 2.8546 -1.2052 0.6651 0 10
3.0257 2.8601 -1.1787 0.7338 0 10
2.9045 2.8710 -1.1561 0.7499 0 10
2.7883 2.8822 -1.1353 0.7784 0 10
2.6775 2.8943 -1.1162 0.7912 0 10
2.5772 2.9140 -1.1013 0.8132 0 10
2.4918 2.9475 -1.0926 0.8157 0 10
2.4085 2.9817 -1.0851 0.8193 0 10
2.3271 3.0164 -1.0785 0.8723 0 10
2.2286 3.0261 -1.0639 0.9212 0 10
2.1380 3.0433 -1.0529 0.8922 0 10
2.0486 3.0592 -1.0423 0.8873 0 10
1.9608 3.0745 -1.0323 0.9504 0 10
1.8890 3.1132 -1.0309 0.9569 0 10
1.8188 3.1543 -1.0308 0.9133 0 10
1.7540 3.2054 -1.0344 0.6560 0 10
1.7051 3.2885 -1.0487 0.5037 0 10
1.6634 3.3913 -1.0693 0.5030 0 10
1.6208 3.5002 -1.0920 0.4926 0 10
1.5747 3.6101 -1.1150 0.5014 0 10
1.5255 3.7222 -1.1388 0.4909 0 10
1.4822 3.8600 -1.1705 0.3510 0 10
1.4418 4.0213 -1.2094 0.3640 0 10
1.3963 4.1866 -1.2494 0.3286 0 10
2.1768 7.0475 -2.0881 0.3376 0 8
2.0518 7.2104 -2.1223 0.3322 0 8
1.9219 7.3759 -2.1578 0.3267 0 8
1.7867 7.5440 -2.1947 0.3212 0 8
1.6460 7.7149 -2.2332 0.3157 0 8
1.4996 7.8886 -2.2732 0.3101 0 8
1.3472 8.0653 -2.3149 0.3045 0 8
1.1885 8.2450 -2.3582 0.2989 0 8
1.0232 8.4279 -2.4034 0.2933 0 8
0.8482 8.5861 -2.4425 0.9576 0 1
0.6550 8.5874 -2.4381 0.9594 0 1
0.4624 8.5887 -2.4349 0.9606 0 1
0.2701 8.5900 -2.4330 0.9614 0 1
0.0781 8.5913 -2.4322 0.9617 0 1
-0.1139 8.5926 -2.4327 0.9615 0 1
-0.3061 8.5939 -2.4344 0.9608 0 1
-0.4986 8.5952 -2.4373 0.9597 0 1
-0.6917 8.5966 -2.4415 0.9580 0 1
-0.8028 7.7944 -2.2182 0.6151 0 20
-0.9683 7.7072 -2.1990 0.9399 0 20
-1.1412 7.6898 -2.2008 0.9503 0 20
-1.3446 7.8485 -2.2542 0.2932 0 20
-1.5379 7.9103 -2.2813 0.3337 0 20
-1.8733 8.6047 -2.4930 0.9382 0 1
-2.0761 8.6061 -2.5062 0.9333 0 1
-2.2688 8.5613 -2.5073 0.3161 0 1
-2.4698 8.5440 -2.5178 0.9220 0 1
-2.6785 8.5455 -2.5352 0.9157 0 1
-2.9801 8.8125 -2.6335 0.9089 0 1
-3.2200 8.8641 -2.6698 0.9016 0 1
-3.4467 8.8657 -2.6928 0.8939 0 1
-3.6774 8.8673 -2.7176 0.8858 0 1
-4.6229 5.6746 -2.0720 0.3781 0 9
-4.6443 5.4476 -2.0266 0.7718 0 9
-4.7458 5.3211 -2.0185 0.9878 0 9
-4.8956 5.2481 -2.0318 0.6030 0 9
-4.0905 -8.5362 -2.6797 0.5342 0 9
-3.8686 -8.5588 -2.6590 0.7076 0 9
-3.5986 -8.4601 -2.6027 0.8686 0 9
-3.3847 -8.4785 -2.5844 0.7272 0 9
-3.2136 -8.6033 -2.5999 0.6163 0 9
-2.9367 -8.4320 -2.5277 0.5186 0 9
1.7089 3.1534 -1.1032 0.9360 0 10
1.6438 3.2022 -1.1071 0.6692 0 10
1.5951 3.2860 -1.1235 0.5331 0 10
1.5519 3.3876 -1.1461 0.5226 0 10
1.5065 3.4927 -1.1699 0.5120 0 10
1.4588 3.6011 -1.1951 0.4712 0 10
1.4085 3.7132 -1.2215 0.4672 0 10
1.3554 3.8292 -1.2494 0.3859 0 10
1.2972 3.9426 -1.2766 0.3732 0 10
1.2367 4.0624 -1.3061 0.3275 0 10
1.1759 4.1973 -1.3407 0.3206 0 10
1.7738 6.9233 -2.1982 0.3461 0 8
1.6447 7.0730 -2.2335 0.3407 0 8
1.5106 7.2246 -2.2702 0.3352 0 8
1.3714 7.3782 -2.3082 0.3296 0 8
1.2269 7.5338 -2.3477 0.3241 0 8
1.0767 7.6914 -2.3888 0.3185 0 8
0.9208 7.8512 -2.4314 0.3129 0 8
0.7587 8.0132 -2.4757 0.3073 0 8
0.5902 8.1775 -2.5218 0.3017 0 8
0.4151 8.3441 -2.5696 0.2961 0 8
0.2330 8.5130 -2.6194 0.2905 0 8
0.0431 8.5919 -2.6427 0.9553 0 1
-0.1489 8.5933 -2.6435 0.9550 0 1
-0.3412 8.5946 -2.6456 0.9542 0 1
-0.5338 8.5959 -2.6490 0.9530 0 1
-0.6710 7.9340 -2.4491 0.6013 0 20
-0.8268 7.7180 -2.3875 0.9344 0 20
-1.0006 7.7102 -2.3914 0.9305 0 20
-1.2114 7.9400 -2.4705 0.2651 0 20
-1.3594 7.7451 -2.4186 0.9614 0 20
-1.5260 7.6820 -2.4090 0.7635 0 20
-1.7437 7.8551 -2.4749 0.0941 0 20
-2.1134 8.6067 -2.7259 0.9261 0 1
-2.3014 8.5432 -2.7214 0.9207 0 1
-2.5078 8.5447 -2.7390 0.9147 0 1
-2.7171 8.5461 -2.7583 0.9083 0 1
-2.9516 8.6126 -2.8003 0.9015 0 1
-3.1690 8.6141 -2.8231 0.8942 0 1
-3.3899 8.6156 -2.8477 0.8865 0 1
-3.6149 8.6172 -2.8742 0.8783 0 1
-3.8443 8.6188 -2.9027 0.8697 0 1
-4.5678 5.5605 -2.2134 0.7583 0 9
-4.6356 5.3927 -2.1873 0.9839 0 9
-4.7539 5.2867 -2.1868 0.9841 0 9
-4.9553 5.2688 -2.2247 0.6080 0 9
-4.2283 -8.4253 -2.8995 0.6229 0 9
-3.9686 -8.3693 -2.8490 0.4945 0 9
-3.7338 -8.3510 -2.8136 0.3036 0 9
-3.4828 -8.2814 -2.7633 0.3027 0 9
-3.2835 -8.3233 -2.7521 0.3779 0 9
-3.0558 -8.2837 -2.7157 0.3561 0 9
-2.8844 -8.3918 -2.7294 0.8530 0 9
-2.6559 -8.3278 -2.6886 0.3707 0 9
-2.4532 -8.3310 -2.6712 0.3211 0 9
-2.2673 -8.3870 -2.6723 0.5381 0 9
-2.0432 -8.2889 -2.6258 0.7006 0 9
-1.8872 -8.4660 -2.6679 0.3325 0 9
-1.6682 -8.3588 -2.6217 0.4393 0 9
-1.4826 -8.4028 -2.6244 0.1917 0 9
-1.2796 -8.3369 -2.5943 0.1525 0 9
-1.0806 -8.2682 -2.5647 0.3908 0 9
-0.8928 -8.2649 -2.5569 0.3531 0 9
-0.7135 -8.3476 -2.5769 0.4317 0 9
-0.5216 -8.2796 -2.5517 0.4145 0 9
-0.3416 -8.4157 -2.5906 0.2504 0 9
-0.1539 -8.4448 -2.5979 0.1250 0 9
0.0348 -8.4387 -2.5956 0.2716 0 9
0.2255 -8.5198 -2.6214 0.2903 0 8
0.4079 -8.3508 -2.5716 0.2959 0 8
0.5833 -8.1841 -2.5236 0.3015 0 8
0.7661 -8.1695 -2.5238 0.9916 0 8
0.9497 -8.1609 -2.5271 0.9903 0 8
1.1307 -8.1296 -2.5246 0.3343 0 8
1.2907 -7.9709 -2.4836 0.3398 0 8
1.4452 -7.8140 -2.4442 0.3453 0 8
1.5938 -7.6565 -2.4055 0.3349 0 7
1.7360 -7.4959 -2.3666 0.3404 0 7
1.8729 -7.3373 -2.3292 0.3459 0 7
2.0049 -7.1807 -2.2931 0.3514 0 7
2.1320 -7.0260 -2.2583 0.3568 0 7
2.2545 -6.8731 -2.2249 0.3621 0 7
2.3726 -6.7221 -2.1926 0.3675 0 7
2.4864 -6.5728 -2.1615 0.3727 0 7
2.5961 -6.4252 -2.1315 0.3780 0 7
2.7019 -6.2793 -2.1026 0.3832 0 7
2.8039 -6.1349 -2.0747 0.3883 0 7
2.9022 -5.9921 -2.0478 0.3934 0 7
2.9969 -5.8508 -2.0219 0.3985 0 7
3.0883 -5.7110 -1.9970 0.4035 0 7
3.1764 -5.5726 -1.9729 0.4084 0 7
3.2613 -5.4355 -1.9497 0.4132 0 7
3.3431 -5.2998 -1.9273 0.4180 0 7
3.4220 -5.1653 -1.9058 0.4228 0 6
3.4980 -5.0321 -1.8850 0.4274 0 7
3.5712 -4.9001 -1.8650 0.4320 0 7
3.6418 -4.7693 -1.8457 0.4365 0 7
3.7097 -4.6395 -1.8271 0.4410 0 7
3.7751 -4.5109 -1.8092 0.4453 0 7
3.8381 -4.3833 -1.7920 0.4496 0 7
3.8987 -4.2568 -1.7755 0.4538 0 7
3.9570 -4.1312 -1.7595 0.4579 0 7
4.0131 -4.0065 -1.7442 0.4619 0 7
4.0670 -3.8828 -1.7295 0.4659 0 7
4.1187 -3.7599 -1.7153 0.4697 0 7
4.1684 -3.6379 -1.7017 0.4735 0 7
4.2161 -3.5167 -1.6887 0.4771 0 7
4.2619 -3.3963 -1.6762 0.4807 0 7
4.3057 -3.2766 -1.6642 0.4841 0 7
4.3477 -3.1577 -1.6527 0.4875 0 7
4.3878 -3.0395 -1.6418 0.4907 0 7
4.4262 -2.9219 -1.6313 0.4939 0 7
4.4628 -2.8049 -1.6213 0.4969 0 7
4.4977 -2.6886 -1.6117 0.4999 0 7
4.5310 -2.5729 -1.6026 0.5027 0 7
4.5626 -2.4577 -1.5940 0.5055 0 7
4.5926 -2.3430 -1.5858 0.5081 0 7
4.6210 -2.2288 -1.5780 0.5106 0 7
4.6479 -2.1151 -1.5707 0.5130 0 7
4.6733 -2.0018 -1.5637 0.5152 0 7
4.6972 -1.8890 -1.5572 0.5174 0 6
4.7196 -1.7765 -1.5511 0.5194 0 7
4.7405 -1.6645 -1.5454 0.5214 0 7
4.7601 -1.5527 -1.5400 0.5232 0 6
4.7782 -1.4414 -1.5351 0.5249 0 7
4.7949 -1.3303 -1.5305 0.5264 0 7
4.8102 -1.2195 -1.5263 0.5279 0 7
4.8242 -1.1089 -1.5225 0.5292 0 7
4.8368 -0.9986 -1.5191 0.5304 0 7
4.8480 -0.8884 -1.5160 0.5315 0 7
4.0229 -0.6447 -1.2531 0.6224 24 10
3.9395 -0.5413 -1.2231 0.6377 24 10
3.8701 -0.4439 -1.1982 0.8723 24 10
3.8551 -0.3551 -1.1908 0.8800 24 10
3.8393 -0.2673 -1.1837 0.8852 24 10
3.8295 -0.1808 -1.1792 0.9054 24 10
3.8250 -0.0950 -1.1768 0.8970 24 10
3.8226 -0.0095 -1.1758 0.8979 24 10
3.8245 0.0760 -1.1766 0.8973 24 10
3.8283 0.1617 -1.1785 0.9059 24 10
3.8358 0.2480 -1.1823 0.8863 24 10
3.8515 0.3355 -1.1891 0.8812 24 10
3.8668 0.4241 -1.1965 0.8735 24 10
3.9215 0.5190 -1.2167 0.6410 24 10
4.0040 0.6213 -1.2463 0.6258 24 10
4.1379 0.7371 -1.2928 0.2031 24 10
4.8394 0.9741 -1.5183 0.5306 0 7
4.8271 1.0844 -1.5217 0.5295 0 7
4.8134 1.1949 -1.5254 0.5282 0 7
4.7984 1.3056 -1.5295 0.5267 0 7
4.7820 1.4166 -1.5340 0.5252 0 7
4.7642 1.5280 -1.5389 0.5235 0 7
4.7450 1.6396 -1.5441 0.5218 0 7
4.7244 1.7516 -1.5498 0.5199 0 6
4.7023 1.8639 -1.5558 0.5179 0 7
4.6788 1.9767 -1.5622 0.5157 0 7
4.6537 2.0899 -1.5691 0.5135 0 7
4.6272 2.2035 -1.5763 0.5111 0 7
4.5991 2.3175 -1.5840 0.5086 0 7
4.5694 2.4321 -1.5921 0.5060 0 7
4.5381 2.5472 -1.6007 0.5033 0 7
4.5053 2.6628 -1.6097 0.5005 0 7
4.4707 2.7790 -1.6191 0.4976 0 7
4.4345 2.8958 -1.6290 0.4946 0 7
4.3965 3.0133 -1.6394 0.4915 0 7
3.9746 2.8567 -1.5055 0.5574 0 10
3.7930 2.8568 -1.4605 0.5780 0 10
3.6223 2.8573 -1.4190 0.6805 0 10
3.4687 2.8642 -1.3836 0.5625 0 10
3.3061 2.8565 -1.3439 0.5787 0 10
3.1551 2.8516 -1.3081 0.6701 0 10
3.0220 2.8566 -1.2790 0.6861 0 10
2.8947 2.8614 -1.2519 0.7048 0 10
2.7753 2.8688 -1.2277 0.7621 0 10
2.6639 2.8796 -1.2066 0.7904 0 10
2.5573 2.8915 -1.1873 0.8032 0 10
2.4540 2.9029 -1.1692 0.8152 0 10
2.3688 2.9326 -1.1595 0.9752 0 10
2.2800 2.9553 -1.1481 0.8562 0 10
2.1998 2.9870 -1.1410 0.8490 0 10
2.1203 3.0181 -1.1345 0.8937 0 10
2.0313 3.0332 -1.1228 0.9042 0 10
1.9436 3.0474 -1.1117 0.9076 0 10
1.8652 3.0739 -1.1059 0.9742 0 10
1.7920 3.1079 -1.1034 0.9600 0 10
1.7218 3.1465 -1.1032 0.9360 0 10
1.6526 3.1871 -1.1042 0.6121 0 10
1.6017 3.2657 -1.1188 0.6623 0 10
1.5599 3.3688 -1.1419 0.5245 0 10
1.5150 3.4732 -1.1655 0.5139 0 10
1.4678 3.5813 -1.1904 0.4730 0 10
1.4176 3.6919 -1.2164 0.4692 0 10
1.3657 3.8090 -1.2446 0.3874 0 10
1.3079 3.9215 -1.2715 0.3747 0 10
1.2473 4.0382 -1.3000 0.3720 0 10
1.1875 4.1730 -1.3345 0.3221 0 10
1.7969 6.8962 -2.1920 0.3471 0 8
1.6686 7.0456 -2.2270 0.3417 0 8
1.5355 7.1968 -2.2634 0.3362 0 8
1.3972 7.3500 -2.3012 0.3306 0 8
1.2536 7.5052 -2.3404 0.3251 0 8
1.1046 7.6625 -2.3812 0.3195 0 8
0.9497 7.8219 -2.4235 0.3140 0 8
0.7887 7.9835 -2.4675 0.3084 0 8
0.6214 8.1474 -2.5132 0.3028 0 8
0.4476 8.3135 -2.5608 0.2971 0 8
0.2667 8.4820 -2.6102 0.2915 0 8
0.0781 8.5917 -2.6427 0.9553 0 1
-0.1139 8.5930 -2.6433 0.9551 0 1
-0.3061 8.5943 -2.6451 0.9544 0 1
-0.4986 8.5956 -2.6483 0.9533 0 1
-0.6918 8.5970 -2.6528 0.9516 0 1
-0.7974 7.7420 -2.3939 0.6152 0 20
-0.9661 7.6897 -2.3838 0.9648 0 20
-1.1639 7.8426 -2.4386 0.2686 0 20
-1.3289 7.7568 -2.4206 0.9606 0 20
-1.4956 7.6927 -2.4104 0.9647 0 20
-1.6875 7.7512 -2.4400 0.7538 0 20
-2.0762 8.6065 -2.7231 0.9271 0 1
-2.2640 8.5430 -2.7183 0.9217 0 1
-2.4700 8.5444 -2.7357 0.9158 0 1
-2.6787 8.5459 -2.7546 0.9095 0 1
-2.9124 8.6123 -2.7963 0.9028 0 1
-3.1291 8.6138 -2.8188 0.8956 0 1
-3.3493 8.6153 -2.8431 0.8879 0 1
-3.5736 8.6169 -2.8693 0.8798 0 1
-3.8021 8.6185 -2.8974 0.8713 0 1
-4.5604 5.5978 -2.2208 0.7557 0 9
-4.6140 5.4121 -2.1875 0.9838 0 9
-4.7324 5.3060 -2.1868 0.9841 0 9
-4.9101 5.2636 -2.2140 0.6109 0 9
-4.2693 -8.4212 -2.9040 0.5850 0 9
-4.0016 -8.3506 -2.8481 0.4946 0 9
-3.7413 -8.2771 -2.7938 0.3216 0 9
-3.5126 -8.2580 -2.7602 0.4256 0 9
-3.3246 -8.3280 -2.7581 0.3771 0 9
-3.0971 -8.2915 -2.7224 0.3552 0 9
-2.9171 -8.3758 -2.7280 0.3720 0 9
1.6831 3.1058 -1.1742 0.9587 0 10
1.6115 3.1392 -1.1729 0.9211 0 10
1.5447 3.1822 -1.1758 0.6167 0 10
1.4950 3.2634 -1.1932 0.6078 0 10
1.4496 3.3607 -1.2166 0.5172 0 10
1.3996 3.4551 -1.2391 0.5132 0 10
1.3417 3.5372 -1.2575 0.4332 0 10
1.2859 3.6328 -1.2810 0.4297 0 10
1.2276 3.7313 -1.3057 0.4071 0 10
1.1675 3.8353 -1.3326 0.4005 0 10
1.1043 3.9418 -1.3607 0.3724 0 10
1.0400 4.0593 -1.3929 0.3385 0 10
1.5411 6.6277 -2.2619 0.3609 0 8
1.4141 6.7627 -2.2966 0.3555 0 8
1.2824 6.8991 -2.3326 0.3500 0 8
1.1459 7.0368 -2.3699 0.3445 0 8
1.0045 7.1757 -2.4085 0.3390 0 8
0.8580 7.3161 -2.4486 0.3334 0 8
0.7061 7.4578 -2.4901 0.3279 0 8
0.5486 7.6009 -2.5331 0.3223 0 8
0.3853 7.7453 -2.5778 0.3167 0 8
0.2160 7.8912 -2.6241 0.3111 0 8
0.0403 8.0385 -2.6721 0.3055 0 8
-0.1419 8.1872 -2.7219 0.2999 0 8
-0.3310 8.3373 -2.7736 0.2943 0 8
-0.5272 8.4888 -2.8272 0.2888 0 8
-0.6663 7.8791 -2.6284 0.6011 0 20
-0.8279 7.7283 -2.5836 0.9264 0 20
-1.0029 7.7274 -2.5902 0.9241 0 20
-1.2033 7.8869 -2.6520 0.5689 0 20
-1.3561 7.7262 -2.6075 0.9568 0 20
-1.5309 7.7065 -2.6118 0.7556 0 20
-1.9103 8.6057 -2.9302 0.9244 0 1
-2.1135 8.6071 -2.9461 0.9194 0 1
-2.0918 7.7653 -2.6732 0.8994 0 20
-2.5079 8.5451 -2.9602 0.9081 0 1
-2.7378 8.6115 -3.0037 0.9018 0 1
-2.9518 8.6130 -3.0265 0.8950 0 1
-3.1691 8.6145 -3.0511 0.8878 0 1
-3.3901 8.6161 -3.0777 0.8801 0 1
-3.6151 8.6176 -3.1064 0.8720 0 1
-3.8445 8.6192 -3.1372 0.8634 0 1
-4.5145 5.7530 -2.4308 0.2983 0 9
-4.5338 5.5191 -2.3742 0.7826 0 9
-4.6258 5.3813 -2.3588 0.9695 0 9
-4.7480 5.2800 -2.3604 0.9152 0 9
-4.9756 5.2905 -2.4141 0.6259 0 9
-4.5853 -8.2008 -3.1232 0.3406 0 9
-4.4221 -8.3410 -3.1382 0.4133 0 9
-4.1888 -8.3464 -3.1042 0.5832 0 9
-3.9542 -8.3387 -3.0677 0.8582 0 9
-3.7094 -8.2965 -3.0209 0.3756 0 9
-3.4959 -8.3127 -2.9976 0.4327 0 9
-3.3399 -8.4661 -3.0252 0.6116 0 9
-3.0969 -8.3951 -2.9744 0.5015 0 9
-2.9155 -8.4823 -2.9815 0.0641 0 9
-2.7130 -8.5070 -2.9681 0.4883 0 9
-2.4439 -8.2993 -2.8758 0.3328 0 9
-2.2328 -8.2594 -2.8440 0.0766 0 9
-2.0510 -8.3207 -2.8486 0.2121 0 9
-1.8649 -8.3659 -2.8491 0.4268 0 9
-1.6676 -8.3555 -2.8322 0.3091 0 9
-1.4835 -8.4080 -2.8380 0.4223 0 9
-1.2833 -8.3610 -2.8118 0.5112 0 9
-1.0954 -8.3815 -2.8097 0.4257 0 9
-0.9126 -8.4480 -2.8245 0.2740 0 9
-0.7239 -8.4698 -2.8257 0.8981 0 9
-0.5343 -8.4808 -2.8246 0.6588 0 9
-0.3387 -8.3433 -2.7757 0.2941 0 8
-0.1493 -8.1932 -2.7239 0.2997 0 8
0.0336 -8.1668 -2.7147 0.9891 0 8
0.2160 -8.1592 -2.7131 0.9897 0 8
0.3982 -8.1513 -2.7128 0.9898 0 8
0.5729 -8.0377 -2.6786 0.3381 0 8
0.7402 -7.8936 -2.6354 0.3436 0 8
0.9019 -7.7505 -2.5937 0.3491 0 8
1.0576 -7.6042 -2.5520 0.3387 0 7
1.2075 -7.4570 -2.5110 0.3443 0 7
1.3522 -7.3111 -2.4715 0.3498 0 7
1.4918 -7.1667 -2.4333 0.3553 0 7
1.6266 -7.0236 -2.3965 0.3607 0 7
1.7567 -6.8819 -2.3609 0.3662 0 7
1.8822 -6.7415 -2.3266 0.3716 0 7
2.0034 -6.6024 -2.2935 0.3769 0 7
2.1205 -6.4645 -2.2615 0.3823 0 7
2.2335 -6.3279 -2.2306 0.3875 0 7
2.3426 -6.1925 -2.2008 0.3928 0 7
2.4479 -6.0583 -2.1720 0.3980 0 7
2.5496 -5.9253 -2.1442 0.4032 0 7
2.6478 -5.7934 -2.1174 0.4083 0 7
2.7426 -5.6627 -2.0915 0.4133 0 7
2.8341 -5.5330 -2.0664 0.4183 0 7
2.9225 -5.4044 -2.0423 0.4233 0 7
3.0078 -5.2768 -2.0190 0.4282 0 7
3.0901 -5.1502 -1.9965 0.4330 0 7
3.1695 -5.0246 -1.9748 0.4378 0 7
3.2462 -4.9000 -1.9538 0.4425 0 7
3.3202 -4.7763 -1.9336 0.4471 0 7
3.3915 -4.6535 -1.9141 0.4516 0 7
3.4603 -4.5316 -1.8953 0.4561 0 7
3.5266 -4.4106 -1.8771 0.4605 0 7
3.5906 -4.2904 -1.8597 0.4648 0 7
3.6522 -4.1710 -1.8428 0.4691 0 7
3.7115 -4.0523 -1.8266 0.4733 0 7
3.7686 -3.9345 -1.8110 0.4773 0 7
3.8236 -3.8173 -1.7960 0.4813 0 7
3.8765 -3.7009 -1.7815 0.4852 0 7
3.9273 -3.5852 -1.7676 0.4891 0 7
3.9762 -3.4701 -1.7543 0.4928 0 7
4.0231 -3.3557 -1.7414 0.4964 0 7
4.0681 -3.2419 -1.7291 0.4999 0 7
4.1113 -3.1287 -1.7173 0.5034 0 7
4.1527 -3.0161 -1.7060 0.5067 0 7
4.1923 -2.9040 -1.6952 0.5099 0 7
4.2301 -2.7925 -1.6849 0.5131 0 7
4.2663 -2.6814 -1.6750 0.5161 0 7
4.3008 -2.5709 -1.6656 0.5190 0 7
4.3336 -2.4608 -1.6566 0.5218 0 7
4.3649 -2.3511 -1.6480 0.5245 0 7
4.3946 -2.2419 -1.6399 0.5271 0 7
4.4228 -2.1331 -1.6322 0.5296 0 7
4.4494 -2.0247 -1.6249 0.5320 0 7
4.4745 -1.9167 -1.6181 0.5343 0 7
4.4982 -1.8089 -1.6116 0.5364 0 6
4.5204 -1.7016 -1.6055 0.5384 0 7
4.5412 -1.5945 -1.5999 0.5403 0 6
4.5605 -1.4877 -1.5946 0.5421 0 7
4.5785 -1.3811 -1.5897 0.5438 0 7
4.5951 -1.2748 -1.5851 0.5454 0 7
4.6103 -1.1688 -1.5810 0.5468 0 7
4.6241 -1.0629 -1.5772 0.5481 0 7
4.6366 -0.9573 -1.5738 0.5493 0 7
4.6478 -0.8518 -1.5707 0.5504 0 7
4.6577 -0.7464 -1.5680 0.5513 0 7
3.9919 -0.5485 -1.3394 0.6576 24 10
3.8922 -0.4465 -1.3023 0.6333 24 10
3.8684 -0.3564 -1.2913 0.6387 24 10
3.8522 -0.2682 -1.2836 0.8759 24 10
3.8433 -0.1814 -1.2790 0.8856 24 10
3.8408 -0.0954 -1.2771 0.8869 24 10
3.8385 -0.0096 -1.2759 0.8877 24 10
3.8403 0.0763 -1.2768 0.8871 24 10
3.8428 0.1623 -1.2785 0.8859 24 10
3.8486 0.2488 -1.2820 0.8770 24 10
3.8645 0.3367 -1.2894 0.8719 24 10
3.8868 0.4263 -1.2998 0.6345 24 10
3.9723 0.5258 -1.3319 0.4262 24 10
4.6597 0.7230 -1.5674 0.5515 0 7
4.6501 0.8283 -1.5701 0.5506 0 7
4.6393 0.9338 -1.5730 0.5496 0 7
4.6270 1.0394 -1.5764 0.5484 0 7
4.6135 1.1452 -1.5801 0.5471 0 7
4.5986 1.2513 -1.5842 0.5457 0 7
4.5823 1.3575 -1.5886 0.5442 0 7
4.5646 1.4640 -1.5934 0.5425 0 7
4.5456 1.5707 -1.5986 0.5408 0 7
4.5251 1.6777 -1.6042 0.5389 0 7
4.5032 1.7850 -1.6102 0.5369 0 6
4.4799 1.8927 -1.6166 0.5347 0 7
4.4551 2.0007 -1.6234 0.5325 0 7
4.4288 2.1090 -1.6306 0.5302 0 7
4.4010 2.2177 -1.6382 0.5277 0 7
4.3717 2.3268 -1.6462 0.5251 0 7
4.3407 2.4364 -1.6546 0.5225 0 7
4.3082 2.5464 -1.6635 0.5197 0 7
4.2741 2.6568 -1.6728 0.5168 0 7
4.2383 2.7677 -1.6826 0.5138 0 7
4.2008 2.8792 -1.6929 0.5106 0 7
4.1616 2.9911 -1.7036 0.5074 0 7
4.1207 3.1036 -1.7148 0.5041 0 7
3.6214 2.8567 -1.5332 0.5920 0 10
3.4602 2.8572 -1.4916 0.6032 0 10
3.3136 2.8630 -1.4556 0.6803 0 10
3.1639 2.8596 -1.4176 0.6008 0 10
3.0212 2.8558 -1.3819 0.6187 0 10
2.8916 2.8583 -1.3515 0.6967 0 10
2.7698 2.8631 -1.3242 0.7149 0 10
2.6531 2.8680 -1.2987 0.7290 0 10
2.5444 2.8769 -1.2767 0.8015 0 10
2.4417 2.8882 -1.2572 0.8105 0 10
2.3422 2.8996 -1.2390 0.8285 0 10
2.2273 2.8870 -1.2120 0.8123 0 10
2.1593 2.9320 -1.2104 0.8739 0 10
2.0805 2.9615 -1.2031 0.8793 0 10
2.0036 2.9920 -1.1970 0.8724 0 10
1.9282 3.0233 -1.1920 0.9122 0 10
1.8439 3.0389 -1.1816 0.9316 0 10
1.7714 3.0721 -1.1788 0.9807 0 10
1.6970 3.1013 -1.1751 0.9580 0 10
1.6238 3.1316 -1.1726 0.9214 0 10
1.5560 3.1724 -1.1745 0.8849 0 10
1.5042 3.2485 -1.1900 0.6094 0 10
1.4584 3.3435 -1.2125 0.5210 0 10
1.4092 3.4383 -1.2352 0.5094 0 10
1.3516 3.5201 -1.2534 0.4751 0 10
1.2963 3.6154 -1.2767 0.4311 0 10
1.2383 3.7126 -1.3009 0.4086 0 10
1.1787 3.8162 -1.3276 0.4020 0 10
1.1159 3.9215 -1.3553 0.3739 0 10
1.0518 4.0365 -1.3866 0.3659 0 10
0.9863 4.1647 -1.4227 0.3327 0 10
1.4376 6.7380 -2.2902 0.3565 0 8
1.3067 6.8741 -2.3259 0.3510 0 8
1.1712 7.0115 -2.3630 0.3455 0 8
1.0307 7.1503 -2.4014 0.3400 0 8
0.8851 7.2904 -2.4412 0.3344 0 8
0.7342 7.4318 -2.4824 0.3289 0 8
0.5778 7.5746 -2.5252 0.3233 0 8
0.4155 7.7189 -2.5695 0.3177 0 8
0.2473 7.8645 -2.6155 0.3121 0 8
0.0728 8.0115 -2.6632 0.3065 0 8
-0.1082 8.1599 -2.7127 0.3010 0 8
-0.2960 8.3098 -2.7640 0.2954 0 8
-0.4908 8.4611 -2.8172 0.2898 0 8
-0.6375 7.9225 -2.6420 0.5980 0 20
-0.7960 7.7285 -2.5826 0.9268 0 20
-0.9709 7.7276 -2.5889 0.9246 0 20
-1.1778 7.9361 -2.6669 0.5657 0 20
-1.3257 7.7379 -2.6096 0.9561 0 20
-1.4953 7.6912 -2.6045 0.7577 0 20
-1.8735 8.6055 -2.9275 0.9253 0 1
-2.0763 8.6069 -2.9430 0.9204 0 1
-2.0569 7.7617 -2.6691 0.9008 0 20
-2.4701 8.5448 -2.9566 0.9092 0 1
-2.6992 8.6112 -2.9997 0.9030 0 1
-2.9125 8.6127 -3.0222 0.8963 0 1
-3.1292 8.6142 -3.0465 0.8891 0 1
-3.3495 8.6158 -3.0727 0.8815 0 1
-3.5738 8.6173 -3.1010 0.8735 0 1
-3.8023 8.6189 -3.1314 0.8650 0 1
-4.5427 5.8377 -2.4588 0.3042 0 9
-4.5252 5.5546 -2.3816 0.7802 0 9
-4.6046 5.4009 -2.3592 0.9694 0 9
-4.7251 5.2979 -2.3597 0.9154 0 9
-4.9333 5.2885 -2.4040 0.6285 0 9
-4.6316 -8.2049 -3.1319 0.3685 0 9
-4.4428 -8.2983 -3.1288 0.4146 0 9
-4.2114 -8.3069 -3.0959 0.5548 0 9
-3.9847 -8.3155 -3.0651 0.8590 0 9
-3.7575 -8.3130 -3.0325 0.3956 0 9
-3.5682 -8.3886 -3.0302 0.5141 0 9
-3.3295 -8.3401 -2.9850 0.4203 0 9
-3.1123 -8.3321 -2.9565 0.5045 0 9
-2.9664 -8.5174 -2.9980 0.4816 0 9
1.6622 3.0672 -1.2476 0.9633 0 10
1.5873 3.0920 -1.2429 0.9676 0 10
1.5155 3.1220 -1.2410 0.8906 0 10
1.4504 3.1661 -1.2454 0.8875 0 10
1.3959 3.2360 -1.2603 0.6145 0 10
1.3401 3.3081 -1.2764 0.5527 0 10
1.2827 3.3817 -1.2934 0.5035 0 10
1.2251 3.4612 -1.3130 0.4841 0 10
1.1665 3.5454 -1.3347 0.4403 0 10
1.1068 3.6357 -1.3591 0.4342 0 10
1.0457 3.7324 -1.3861 0.4094 0 10
0.9820 3.8329 -1.4149 0.4030 0 10
1.4486 6.2295 -2.2872 0.3810 0 8
1.3279 6.3506 -2.3201 0.3756 0 8
1.2031 6.4725 -2.3543 0.3702 0 8
1.0740 6.5951 -2.3895 0.3647 0 8
0.9405 6.7185 -2.4260 0.3592 0 8
0.8025 6.8426 -2.4637 0.3537 0 8
0.6597 6.9675 -2.5028 0.3482 0 8
0.5120 7.0931 -2.5432 0.3427 0 8
0.3591 7.2195 -2.5849 0.3371 0 8
0.2010 7.3465 -2.6281 0.3316 0 8
0.0375 7.4741 -2.6728 0.3261 0 8
-0.1318 7.6025 -2.7191 0.3205 0 8
-0.3069 7.7314 -2.7670 0.3150 0 8
-0.4882 7.8609 -2.8165 0.3094 0 8
-0.6617 7.8241 -2.8080 0.6007 0 20
-0.8290 7.7388 -2.7833 0.9180 0 20
-1.0126 7.8023 -2.8135 0.2666 0 20
-1.1912 7.8072 -2.8242 0.5702 0 20
-1.3528 7.7071 -2.7982 0.9518 0 20
-1.5359 7.7317 -2.8189 0.7473 0 20
-1.9104 8.6062 -3.1525 0.9172 0 1
-1.9061 7.7625 -2.8584 0.3921 0 20
-2.0723 7.6930 -2.8492 0.9143 0 20
-2.5081 8.5455 -3.1848 0.9010 0 1
-2.7380 8.6119 -3.2316 0.8948 0 1
-2.9519 8.6134 -3.2561 0.8880 0 1
-3.1693 8.6149 -3.2826 0.8808 0 1
-3.3903 8.6165 -3.3113 0.8732 0 1
-3.6153 8.6181 -3.3421 0.8652 0 1
-4.4447 5.6641 -2.5747 0.7893 0 9
-4.5084 5.4882 -2.5399 0.8380 0 9
-4.6309 5.3872 -2.5405 0.9318 0 9
-4.7772 5.3125 -2.5550 0.6310 0 9
-5.0996 5.4223 -2.6619 0.3482 0 9
-4.1440 -8.2573 -3.3039 0.3497 0 9
-3.9620 -8.3553 -3.3068 0.6000 0 9
-3.7110 -8.3001 -3.2513 0.3982 0 9
-3.5256 -8.3832 -3.2522 0.5027 0 9
-3.2965 -8.3562 -3.2124 0.3021 0 9
-3.0915 -8.3805 -3.1943 0.4769 0 9
-2.8744 -8.3628 -3.1623 0.5845 0 9
-2.6820 -8.4099 -3.1567 0.5606 0 9
-2.4653 -8.3723 -3.1211 0.2803 0 9
-2.2782 -8.4273 -3.1218 0.5165 0 9
-2.0743 -8.4151 -3.0994 0.5214 0 9
-1.8789 -8.4285 -3.0881 0.8130 0 9
-1.6867 -8.4514 -3.0819 0.6592 0 9
-1.5033 -8.5203 -3.0940 0.2817 0 8
-1.2876 -8.3888 -3.0350 0.2871 0 8
-1.0792 -8.2575 -2.9781 0.2926 0 8
-0.8822 -8.1663 -2.9373 0.9758 0 8
-0.6974 -8.1599 -2.9287 0.9787 0 8
-0.5137 -8.1532 -2.9214 0.9811 0 8
-0.3307 -8.1463 -2.9156 0.9831 0 8
-0.1465 -8.0385 -2.8751 0.3362 0 8
0.0326 -7.9093 -2.8284 0.3418 0 8
0.2060 -7.7805 -2.7833 0.3473 0 8
0.3737 -7.6499 -2.7389 0.3369 0 7
0.5357 -7.5161 -2.6946 0.3425 0 7
0.6924 -7.3831 -2.6518 0.3480 0 7
0.8438 -7.2508 -2.6104 0.3535 0 7
0.9902 -7.1193 -2.5704 0.3590 0 7
1.1317 -6.9887 -2.5318 0.3645 0 7
1.2685 -6.8588 -2.4943 0.3700 0 7
1.4009 -6.7297 -2.4582 0.3754 0 7
1.5288 -6.6014 -2.4232 0.3808 0 7
1.6525 -6.4740 -2.3894 0.3862 0 7
1.7722 -6.3474 -2.3567 0.3916 0 7
1.8879 -6.2216 -2.3251 0.3969 0 7
1.9998 -6.0966 -2.2945 0.4022 0 7
2.1080 -5.9724 -2.2649 0.4074 0 7
2.2126 -5.8490 -2.2363 0.4126 0 7
2.3138 -5.7264 -2.2087 0.4178 0 7
2.4116 -5.6046 -2.1819 0.4229 0 7
2.5062 -5.4836 -2.1561 0.4280 0 7
2.5976 -5.3633 -2.1311 0.4330 0 7
2.6860 -5.2438 -2.1069 0.4380 0 6
2.7714 -5.1250 -2.0836 0.4429 0 7
2.8540 -5.0070 -2.0610 0.4477 0 7
2.9338 -4.8897 -2.0392 0.4525 0 7
3.0109 -4.7731 -2.0181 0.4573 0 7
3.0853 -4.6572 -1.9978 0.4619 0 7
3.1573 -4.5419 -1.9781 0.4665 0 7
3.2267 -4.4274 -1.9591 0.4710 0 7
3.2937 -4.3135 -1.9408 0.4755 0 7
3.3584 -4.2002 -1.9231 0.4798 0 7
3.4208 -4.0875 -1.9061 0.4841 0 7
3.4810 -3.9755 -1.8896 0.4884 0 7
3.5390 -3.8640 -1.8738 0.4925 0 7
3.5949 -3.7531 -1.8585 0.4965 0 7
3.6487 -3.6428 -1.8438 0.5005 0 7
3.7006 -3.5330 -1.8296 0.5044 0 7
3.7504 -3.4237 -1.8160 0.5082 0 7
3.7984 -3.3150 -1.8029 0.5119 0 7
3.8445 -3.2067 -1.7903 0.5155 0 7
3.8887 -3.0989 -1.7782 0.5190 0 7
3.9311 -2.9916 -1.7666 0.5224 0 7
3.9718 -2.8847 -1.7555 0.5257 0 7
4.0108 -2.7783 -1.7448 0.5289 0 7
4.0481 -2.6723 -1.7346 0.5320 0 7
4.0837 -2.5667 -1.7249 0.5350 0 7
4.1178 -2.4615 -1.7156 0.5379 0 7
4.1502 -2.3566 -1.7067 0.5407 0 7
4.1810 -2.2521 -1.6983 0.5434 0 7
4.2104 -2.1479 -1.6903 0.5460 0 7
4.2382 -2.0441 -1.6827 0.5484 0 7
4.2645 -1.9406 -1.6755 0.5508 0 7
4.2893 -1.8373 -1.6687 0.5530 0 6
4.3127 -1.7344 -1.6623 0.5551 0 7
4.3347 -1.6317 -1.6563 0.5572 0 6
4.3552 -1.5292 -1.6507 0.5591 0 7
4.3744 -1.4269 -1.6454 0.5608 0 7
4.3922 -1.3249 -1.6406 0.5625 0 7
4.4086 -1.2231 -1.6361 0.5640 0 7
4.4236 -1.1215 -1.6320 0.5655 0 7
4.4374 -1.0200 -1.6282 0.5668 0 7
4.4498 -0.9187 -1.6248 0.5679 0 7
4.4609 -0.8175 -1.6218 0.5690 0 7
4.4706 -0.7164 -1.6191 0.5699 0 7
4.4791 -0.6155 -1.6168 0.5708 0 7
4.4863 -0.5146 -1.6149 0.5715 0 7
4.4922 -0.4138 -1.6132 0.5720 0 7
4.4968 -0.3131 -1.6120 0.5725 0 7
4.5001 -0.2125 -1.6111 0.5728 0 7
4.5022 -0.1118 -1.6105 0.5730 0 7
3.8861 -0.0097 -1.3897 0.6948 24 10
4.5025 0.0894 -1.6104 0.5730 0 7
4.5007 0.1901 -1.6109 0.5728 0 7
4.4976 0.2907 -1.6117 0.5726 0 7
4.4933 0.3914 -1.6129 0.5721 0 7
4.4877 0.4922 -1.6145 0.5716 0 7
4.4808 0.5931 -1.6163 0.5709 0 7
4.4726 0.6940 -1.6186 0.5701 0 7
4.4631 0.7950 -1.6212 0.5692 0 7
4.4524 0.8962 -1.6241 0.5682 0 7
4.4402 0.9975 -1.6274 0.5670 0 7
4.4268 1.0989 -1.6311 0.5658 0 7
4.4120 1.2005 -1.6351 0.5644 0 7
4.3959 1.3023 -1.6395 0.5628 0 7
4.3785 1.4042 -1.6443 0.5612 0 7
4.3596 1.5064 -1.6495 0.5595 0 7
4.3394 1.6088 -1.6550 0.5576 0 7
4.3177 1.7115 -1.6609 0.5556 0 7
4.2946 1.8144 -1.6672 0.5535 0 6
4.2701 1.9176 -1.6739 0.5513 0 7
4.2441 2.0211 -1.6810 0.5490 0 7
4.2167 2.1248 -1.6885 0.5465 0 7
4.1877 2.2289 -1.6965 0.5440 0 7
4.1572 2.3334 -1.7048 0.5413 0 7
4.1251 2.4381 -1.7136 0.5385 0 7
4.0915 2.5433 -1.7228 0.5357 0 7
4.0562 2.6488 -1.7324 0.5327 0 7
4.0193 2.7547 -1.7425 0.5296 0 7
3.9807 2.8611 -1.7531 0.5264 0 7
3.9404 2.9678 -1.7641 0.5231 0 7
3.8983 3.0750 -1.7756 0.5197 0 7
3.4595 2.8566 -1.6044 0.5983 0 10
3.3068 2.8572 -1.5628 0.6220 0 10
3.1624 2.8583 -1.5244 0.7044 0 10
3.0306 2.8647 -1.4913 0.6120 0 10
2.8941 2.8608 -1.4552 0.6424 0 10
2.7667 2.8599 -1.4230 0.7063 0 10
2.6500 2.8646 -1.3955 0.7242 0 10
2.5377 2.8693 -1.3698 0.7372 0 10
2.4296 2.8739 -1.3458 0.7516 0 10
2.3295 2.8839 -1.3257 0.8180 0 10
2.2331 2.8946 -1.3074 0.8340 0 10
2.1402 2.9062 -1.2907 0.8597 0 10
2.0503 2.9185 -1.2755 0.8616 0 10
1.9683 2.9392 -1.2650 0.9149 0 10
1.8945 2.9705 -1.2599 0.9049 0 10
1.8227 3.0039 -1.2565 0.8930 0 10
1.7509 3.0366 -1.2535 0.9619 0 10
1.6759 3.0627 -1.2485 0.9625 0 10
1.6010 3.0877 -1.2438 0.9706 0 10
1.5272 3.1138 -1.2402 0.8946 0 10
1.4624 3.1581 -1.2445 0.8881 0 10
1.4061 3.2235 -1.2576 0.5932 0 10
1.3506 3.2953 -1.2736 0.5539 0 10
1.2931 3.3677 -1.2900 0.5048 0 10
1.2357 3.4462 -1.3092 0.4855 0 10
1.1771 3.5291 -1.3304 0.4416 0 10
1.1179 3.6192 -1.3546 0.4356 0 10
1.0570 3.7143 -1.3810 0.4109 0 10
0.9939 3.8144 -1.4096 0.4046 0 10
1.4701 6.2075 -2.2813 0.3820 0 8
1.3502 6.3285 -2.3140 0.3766 0 8
1.2262 6.4502 -2.3479 0.3712 0 8
1.0979 6.5727 -2.3830 0.3657 0 8
0.9652 6.6959 -2.4193 0.3602 0 8
0.8280 6.8199 -2.4568 0.3547 0 8
0.6861 6.9447 -2.4956 0.3492 0 8
0.5393 7.0702 -2.5357 0.3437 0 8
0.3874 7.1964 -2.5772 0.3382 0 8
0.2303 7.3233 -2.6201 0.3326 0 8
0.0677 7.4508 -2.6646 0.3271 0 8
-0.1005 7.5790 -2.7105 0.3215 0 8
-0.2745 7.7078 -2.7581 0.3160 0 8
-0.4546 7.8372 -2.8074 0.3104 0 8
-0.6330 7.8670 -2.8224 0.5976 0 20
-0.7971 7.7389 -2.7821 0.9184 0 20
-0.9722 7.7380 -2.7889 0.9162 0 20
-1.1658 7.8554 -2.8399 0.5671 0 20
-1.3224 7.7187 -2.8005 0.9510 0 20
-1.5002 7.7162 -2.8110 0.7494 0 20
-1.8736 8.6059 -3.1496 0.9180 0 1
-1.8884 7.8280 -2.8797 0.3892 0 20
-2.0375 7.6885 -2.8444 0.9159 0 20
-2.4702 8.5452 -3.1810 0.9021 0 1
-2.6993 8.6116 -3.2273 0.8959 0 1
-2.9127 8.6131 -3.2515 0.8893 0 1
-3.1294 8.6146 -3.2776 0.8822 0 1
-3.3497 8.6162 -3.3059 0.8747 0 1
-3.5740 8.6178 -3.3363 0.8667 0 1
-4.4348 5.6992 -2.5824 0.7869 0 9
-4.4967 5.5196 -2.5459 0.8360 0 9
-4.6077 5.4047 -2.5398 0.9320 0 9
-4.7364 5.3106 -2.5447 0.6336 0 9
-4.9731 5.3312 -2.6072 0.1542 0 9
-4.2542 -8.3914 -3.3644 0.5584 0 9
-3.9967 -8.3404 -3.3074 0.4245 0 9
-3.7397 -8.2735 -3.2468 0.1600 0 9
-3.5314 -8.3022 -3.2263 0.3559 0 9
-3.3298 -8.3408 -3.2116 0.3013 0 9
-3.1323 -8.3855 -3.2011 0.5384 0 9
-2.9019 -8.3322 -3.1552 0.5858 0 9
1.6369 3.0206 -1.3166 0.9095 0 10
1.5677 3.0538 -1.3155 0.9097 0 10
1.4952 3.0802 -1.3121 0.9346 0 10
1.4227 3.1056 -1.3091 0.9881 0 10
1.3558 3.1432 -1.3118 0.7436 0 10
1.2931 3.1921 -1.3198 0.7391 0 10
1.2352 3.2563 -1.3346 0.6471 0 10
1.1750 3.3195 -1.3494 0.6124 0 10
1.1137 3.3849 -1.3656 0.4885 0 10
1.0547 3.4645 -1.3878 0.4797 0 10
0.9938 3.5472 -1.4117 0.4474 0 10
1.0090 3.9380 -1.5579 0.0521 0 10
1.3652 5.8711 -2.3099 0.4009 0 8
1.2504 5.9803 -2.3413 0.3956 0 8
1.1319 6.0898 -2.3737 0.3902 0 8
1.0096 6.1997 -2.4071 0.3848 0 8
0.8833 6.3099 -2.4416 0.3793 0 8
0.7530 6.4204 -2.4773 0.3739 0 8
0.6184 6.5312 -2.5141 0.3684 0 8
0.4794 6.6422 -2.5521 0.3629 0 8
0.3360 6.7535 -2.5913 0.3574 0 8
0.1879 6.8649 -2.6317 0.3519 0 8
0.0350 6.9764 -2.6735 0.3464 0 8
-0.1229 7.0880 -2.7167 0.3409 0 8
-0.2858 7.1996 -2.7612 0.3354 0 8
-0.4540 7.3112 -2.8072 0.3299 0 8
-0.6277 7.4227 -2.8547 0.3244 0 8
-0.8070 7.5340 -2.9037 0.3190 0 8
-0.9922 7.6450 -2.9543 0.3135 0 8
-1.1827 7.7516 -3.0049 0.9419 0 20
-1.3494 7.6878 -2.9911 0.9462 0 20
-1.5410 7.7573 -3.0308 0.7387 0 20
-1.7947 8.0847 -3.1736 0.2918 0 8
-1.8777 7.6469 -3.0175 0.8728 0 20
-2.0646 7.6643 -3.0418 0.8948 0 20
-2.4673 8.4067 -3.3575 0.2758 0 8
-2.7061 8.5118 -3.4227 0.2706 0 8
-2.9521 8.6138 -3.4895 0.8806 0 1
-3.1694 8.6154 -3.5179 0.8735 0 1
-3.3905 8.6169 -3.5486 0.8659 0 1
-4.4253 5.6394 -2.7471 0.8394 0 9
-4.5010 5.4792 -2.7173 0.9699 0 9
-4.6297 5.3859 -2.7217 0.9923 0 9
-4.7977 5.3353 -2.7497 0.7150 0 9
-5.0999 5.4226 -2.8527 0.2560 0 9
-4.1468 -8.2627 -3.5428 0.6580 0 9
-3.9394 -8.3075 -3.5234 0.3748 0 9
-3.7118 -8.3019 -3.4849 0.5554 0 9
-3.5163 -8.3612 -3.4760 0.2668 0 9
-3.4041 -8.6290 -3.5548 0.6489 0 9
-3.1092 -8.4285 -3.4427 0.8078 0 9
-2.8995 -8.4358 -3.4184 0.3811 0 9
-2.7159 -8.5159 -3.4254 0.2704 0 8
-2.4767 -8.4109 -3.3600 0.2756 0 8
-2.2480 -8.3157 -3.3011 0.8375 0 8
-2.0206 -8.1973 -3.2354 0.2863 0 8
-1.8188 -8.1589 -3.2034 0.9509 0 8
-1.6273 -8.1537 -3.1863 0.9560 0 8
-1.4377 -8.1483 -3.1708 0.9607 0 8
-1.2498 -8.1426 -3.1569 0.9649 0 8
-1.0560 -8.0804 -3.1229 0.3289 0 8
-0.8608 -7.9687 -3.0715 0.3344 0 8
-0.6715 -7.8565 -3.0217 0.3400 0 8
-0.4879 -7.7441 -2.9736 0.3455 0 8
-0.3097 -7.6283 -2.9257 0.3352 0 7
-0.1369 -7.5101 -2.8785 0.3407 0 7
0.0305 -7.3920 -2.8328 0.3462 0 7
0.1926 -7.2738 -2.7884 0.3517 0 7
0.3496 -7.1559 -2.7455 0.3572 0 7
0.5017 -7.0381 -2.7040 0.3627 0 7
0.6490 -6.9205 -2.6637 0.3682 0 7
0.7917 -6.8031 -2.6247 0.3736 0 7
0.9299 -6.6861 -2.5869 0.3791 0 7
1.0638 -6.5694 -2.5503 0.3845 0 7
1.1935 -6.4530 -2.5149 0.3900 0 7
1.3191 -6.3370 -2.4805 0.3954 0 7
1.4408 -6.2214 -2.4473 0.4007 0 7
1.5587 -6.1062 -2.4150 0.4061 0 7
1.6728 -5.9915 -2.3838 0.4114 0 7
1.7834 -5.8771 -2.3536 0.4167 0 7
1.8905 -5.7633 -2.3244 0.4219 0 7
1.9941 -5.6498 -2.2960 0.4271 0 7
2.0945 -5.5369 -2.2686 0.4323 0 7
2.1918 -5.4244 -2.2420 0.4374 0 7
2.2859 -5.3124 -2.2163 0.4425 0 7
2.3770 -5.2009 -2.1914 0.4475 0 6
2.4652 -5.0899 -2.1673 0.4525 0 7
2.5505 -4.9794 -2.1439 0.4574 0 7
2.6331 -4.8693 -2.1214 0.4623 0 7
2.7130 -4.7597 -2.0995 0.4671 0 7
2.7904 -4.6506 -2.0784 0.4718 0 7
2.8651 -4.5420 -2.0580 0.4765 0 7
2.9374 -4.4339 -2.0382 0.4812 0 7
3.0073 -4.3262 -2.0191 0.4857 0 7
3.0748 -4.2190 -2.0006 0.4902 0 7
3.1401 -4.1123 -1.9828 0.4946 0 7
3.2031 -4.0060 -1.9656 0.4989 0 7
3.2640 -3.9001 -1.9489 0.5032 0 7
3.3227 -3.7947 -1.9329 0.5074 0 7
3.3794 -3.6897 -1.9174 0.5115 0 7
3.4340 -3.5851 -1.9025 0.5155 0 7
3.4867 -3.4810 -1.8881 0.5194 0 7
3.5374 -3.3772 -1.8742 0.5233 0 7
3.5863 -3.2738 -1.8609 0.5270 0 7
3.6333 -3.1708 -1.8480 0.5307 0 7
3.6785 -3.0682 -1.8357 0.5342 0 7
3.7219 -2.9660 -1.8238 0.5377 0 7
3.7636 -2.8641 -1.8124 0.5411 0 7
3.8035 -2.7625 -1.8015 0.5444 0 7
3.8418 -2.6613 -1.7910 0.5476 0 7
3.8785 -2.5604 -1.7810 0.5506 0 7
3.9136 -2.4597 -1.7714 0.5536 0 7
3.9471 -2.3594 -1.7622 0.5565 0 7
3.9790 -2.2594 -1.7535 0.5593 0 7
4.0094 -2.1597 -1.7452 0.5619 0 7
4.0383 -2.0602 -1.7373 0.5645 0 7
4.0657 -1.9609 -1.7298 0.5669 0 7
4.0917 -1.8619 -1.7227 0.5693 0 6
4.1162 -1.7632 -1.7160 0.5715 0 7
4.1393 -1.6646 -1.7097 0.5736 0 7
4.1609 -1.5663 -1.7038 0.5756 0 6
4.1812 -1.4681 -1.6982 0.5775 0 7
4.2002 -1.3701 -1.6931 0.5792 0 7
4.2177 -1.2723 -1.6883 0.5809 0 7
4.2340 -1.1747 -1.6838 0.5824 0 7
4.2489 -1.0772 -1.6797 0.5838 0 7
4.2624 -0.9798 -1.6760 0.5851 0 7
4.2747 -0.8825 -1.6727 0.5863 0 7
4.2857 -0.7854 -1.6697 0.5873 0 7
4.2953 -0.6883 -1.6670 0.5883 0 7
4.3037 -0.5914 -1.6648 0.5891 0 7
4.3108 -0.4945 -1.6628 0.5898 0 7
4.3166 -0.3977 -1.6612 0.5903 0 7
4.3212 -0.3009 -1.6600 0.5908 0 7
4.3245 -0.2042 -1.6591 0.5911 0 7
4.3265 -0.1074 -1.6585 0.5913 0 7
4.3273 -0.0107 -1.6583 0.5914 0 7
4.3268 0.0860 -1.6584 0.5913 0 7
4.3251 0.1827 -1.6589 0.5912 0 7
4.3220 0.2794 -1.6597 0.5909 0 7
4.3178 0.3762 -1.6609 0.5904 0 7
4.3122 0.4730 -1.6624 0.5899 0 7
4.3054 0.5698 -1.6643 0.5892 0 7
4.2973 0.6668 -1.6665 0.5885 0 7
4.2879 0.7638 -1.6691 0.5876 0 7
4.2772 0.8609 -1.6720 0.5865 0 7
4.2653 0.9581 -1.6753 0.5854 0 7
4.2520 1.0555 -1.6789 0.5841 0 7
4.2374 1.1530 -1.6829 0.5827 0 7
4.2215 1.2506 -1.6872 0.5812 0 7
4.2042 1.3484 -1.6920 0.5796 0 7
4.1856 1.4463 -1.6970 0.5779 0 7
4.1656 1.5444 -1.7025 0.5760 0 7
4.1442 1.6427 -1.7084 0.5741 0 7
4.1214 1.7412 -1.7146 0.5720 0 6
4.0972 1.8400 -1.7212 0.5698 0 6
4.0716 1.9389 -1.7282 0.5675 0 7
4.0445 2.0381 -1.7356 0.5650 0 7
4.0160 2.1375 -1.7434 0.5625 0 7
3.9859 2.2372 -1.7516 0.5599 0 7
3.9543 2.3372 -1.7603 0.5571 0 7
3.9212 2.4374 -1.7693 0.5543 0 7
3.8865 2.5380 -1.7788 0.5513 0 7
3.8501 2.6388 -1.7887 0.5483 0 7
3.8122 2.7400 -1.7991 0.5451 0 7
3.7726 2.8415 -1.8099 0.5418 0 7
3.7313 2.9433 -1.8212 0.5385 0 7
3.6883 3.0455 -1.8330 0.5350 0 7
3.3063 2.8567 -1.6744 0.6091 0 10
3.1606 2.8566 -1.6326 0.6316 0 10
3.0228 2.8573 -1.5940 0.6494 0 10
2.8978 2.8644 -1.5615 0.7188 0 10
2.7724 2.8658 -1.5280 0.6502 0 10
2.6494 2.8640 -1.4951 0.6619 0 10
2.5347 2.8658 -1.4662 0.7331 0 10
2.4261 2.8699 -1.4401 0.7437 0 10
2.3211 2.8735 -1.4156 0.7566 0 10
2.2199 2.8775 -1.3927 0.8320 0 10
2.1283 2.8899 -1.3754 0.8388 0 10
2.0394 2.9029 -1.3595 0.9114 0 10
1.9505 2.9127 -1.3434 0.8509 0 10
1.8670 2.9274 -1.3306 0.9196 0 10
1.7894 2.9491 -1.3219 0.9186 0 10
1.7191 2.9815 -1.3189 0.9193 0 10
1.6496 3.0146 -1.3169 0.9093 0 10
1.5803 3.0478 -1.3156 0.9095 0 10
1.5085 3.0755 -1.3127 0.9342 0 10
1.4359 3.1010 -1.3096 0.9877 0 10
1.3671 3.1343 -1.3104 0.7444 0 10
1.3046 3.1832 -1.3183 0.7399 0 10
1.2461 3.2451 -1.3321 0.6483 0 10
1.1861 3.3080 -1.3467 0.5937 0 10
1.1242 3.3706 -1.3616 0.4899 0 10
1.0656 3.4498 -1.3837 0.4811 0 10
1.0049 3.5314 -1.4070 0.4489 0 10
0.9794 3.7588 -1.4885 0.2948 0 10
1.3858 5.8512 -2.3043 0.4019 0 8
1.2716 5.9603 -2.3355 0.3966 0 8
1.1538 6.0698 -2.3677 0.3912 0 8
1.0322 6.1796 -2.4010 0.3857 0 8
0.9067 6.2898 -2.4353 0.3803 0 8
0.7770 6.4002 -2.4707 0.3749 0 8
0.6432 6.5110 -2.5073 0.3694 0 8
0.5051 6.6220 -2.5450 0.3639 0 8
0.3625 6.7332 -2.5840 0.3584 0 8
0.2152 6.8446 -2.6243 0.3529 0 8
0.0632 6.9561 -2.6658 0.3474 0 8
-0.0937 7.0677 -2.7087 0.3419 0 8
-0.2557 7.1793 -2.7530 0.3364 0 8
-0.4230 7.2909 -2.7987 0.3309 0 8
-0.5956 7.4024 -2.8459 0.3254 0 8
-0.7739 7.5137 -2.8946 0.3200 0 8
-0.9580 7.6248 -2.9449 0.3145 0 8
-1.1480 7.7355 -2.9969 0.3090 0 8
-1.3191 7.6994 -2.9935 0.9455 0 20
-1.5051 7.7418 -3.0223 0.7407 0 20
-1.7558 8.0649 -3.1630 0.2928 0 8
-1.8439 7.6436 -3.0132 0.8741 0 20
-2.0304 7.6616 -3.0374 0.8671 0 20
-2.4246 8.3873 -3.3458 0.2768 0 8
-2.6620 8.4927 -3.4107 0.2715 0 8
-2.9071 8.5967 -3.4777 0.2663 0 8
-3.1295 8.6151 -3.5125 0.8748 0 1
-3.3499 8.6166 -3.5428 0.8673 0 1
-3.5741 8.6182 -3.5754 0.8594 0 1
-4.4128 5.6708 -2.7536 0.8374 0 9
-4.4803 5.4995 -2.7184 0.9695 0 9
-4.6061 5.4028 -2.7207 0.9927 0 9
-4.7602 5.3372 -2.7406 0.7174 0 9
-5.0152 5.3763 -2.8176 0.2592 0 9
-4.1745 -8.2341 -3.5378 0.6799 0 9
-3.9852 -8.3164 -3.5340 0.3736 0 9
-3.7458 -8.2870 -3.4851 0.5554 0 9
-3.5592 -8.3675 -3.4846 0.5555 0 9
-3.4439 -8.6266 -3.5596 0.8340 0 9
-3.1459 -8.4220 -3.4452 0.5050 0 9
-2.9162 -8.3732 -3.3978 0.3834 0 9
1.6069 2.9652 -1.3803 0.9252 0 10
1.5378 2.9956 -1.3781 0.9282 0 10
1.4679 3.0240 -1.3757 0.9060 0 10
1.3981 3.0518 -1.3738 0.9140 0 10
1.3301 3.0836 -1.3744 0.9053 0 10
1.2640 3.1202 -1.3778 0.9031 0 10
1.1981 3.1587 -1.3827 0.8895 0 10
1.1342 3.2044 -1.3912 0.6289 0 10
1.0731 3.2616 -1.4053 0.5916 0 10
1.0109 3.3209 -1.4207 0.6097 0 10
1.0069 3.5938 -1.5275 0.3039 0 10
0.9804 3.8265 -1.6167 0.1109 0 10
1.2897 5.5464 -2.3306 0.4206 0 8
1.1804 5.6453 -2.3605 0.4153 0 8
1.0677 5.7443 -2.3912 0.4100 0 8
0.9516 5.8432 -2.4230 0.4046 0 8
0.8319 5.9422 -2.4557 0.3992 0 8
0.7085 6.0412 -2.4894 0.3938 0 8
0.5813 6.1400 -2.5242 0.3884 0 8
0.4503 6.2388 -2.5600 0.3829 0 8
0.3153 6.3373 -2.5969 0.3775 0 8
0.1761 6.4357 -2.6349 0.3721 0 8
0.0328 6.5337 -2.6741 0.3666 0 8
-0.1149 6.6315 -2.7145 0.3611 0 8
-0.2671 6.7288 -2.7561 0.3557 0 8
-0.4239 6.8256 -2.7989 0.3503 0 8
-0.5854 6.9219 -2.8431 0.3448 0 8
-0.7517 7.0176 -2.8886 0.3394 0 8
-0.9231 7.1125 -2.9354 0.3340 0 8
-1.0995 7.2066 -2.9836 0.3286 0 8
-1.2813 7.2998 -3.0333 0.3232 0 8
-1.4684 7.3919 -3.0844 0.3178 0 8
-1.6611 7.4829 -3.1371 0.3125 0 8
-1.8594 7.5725 -3.1913 0.3072 0 8
-2.0637 7.6608 -3.2471 0.3019 0 8
-2.2738 7.7475 -3.3046 0.2967 0 8
-2.4901 7.8324 -3.3637 0.2914 0 8
-2.7127 7.9154 -3.4245 0.2863 0 8
-2.9417 7.9963 -3.4871 0.2811 0 8
-3.1772 8.0750 -3.5515 0.2760 0 8
-3.4194 8.1511 -3.6177 0.2710 0 8
-3.6685 8.2246 -3.6858 0.2660 0 8
-3.9244 8.2951 -3.7557 0.2610 0 8
-4.3358 5.7869 -2.9595 0.7845 0 9
-4.3955 5.6013 -2.9141 0.7967 0 9
-4.4856 5.4604 -2.8922 0.9645 0 9
-4.5984 5.3494 -2.8871 0.9662 0 9
-4.8051 5.3436 -2.9412 0.6277 0 9
-6.9291 5.3737 -3.5888 0.8093 0 19
-6.9317 5.1319 -3.5298 0.8212 0 19
-7.2407 5.1142 -3.6281 0.5167 0 19
-3.9388 -8.3064 -3.7624 0.7778 0 8
-3.6785 -8.2274 -3.6885 0.2658 0 8
-3.4310 -8.1583 -3.6223 0.7965 0 8
-3.2153 -8.1504 -3.5859 0.8992 0 8
-3.0054 -8.1471 -3.5540 0.9072 0 8
-2.7990 -8.1435 -3.5243 0.9149 0 8
-2.5959 -8.1397 -3.4967 0.9221 0 8
-2.3957 -8.1356 -3.4711 0.9289 0 8
-2.1884 -8.0950 -3.4320 0.3168 0 8
-1.9735 -8.0063 -3.3749 0.3222 0 8
-1.7647 -7.9161 -3.3194 0.3276 0 8
-1.5616 -7.8244 -3.2655 0.3330 0 8
-1.3642 -7.7315 -3.2132 0.3384 0 8
-1.1719 -7.6349 -3.1614 0.3284 0 7
-0.9848 -7.5353 -3.1102 0.3338 0 7
-0.8032 -7.4348 -3.0606 0.3392 0 7
-0.6268 -7.3336 -3.0124 0.3446 0 7
-0.4556 -7.2316 -2.9656 0.3500 0 7
-0.2894 -7.1291 -2.9202 0.3555 0 7
-0.1281 -7.0261 -2.8761 0.3609 0 7
0.0285 -6.9226 -2.8333 0.3664 0 7
0.1805 -6.8188 -2.7917 0.3718 0 7
0.3280 -6.7147 -2.7514 0.3773 0 7
0.4712 -6.6103 -2.7123 0.3827 0 7
0.6101 -6.5058 -2.6743 0.3882 0 7
0.7449 -6.4011 -2.6375 0.3936 0 7
0.8757 -6.2963 -2.6017 0.3990 0 7
1.0026 -6.1915 -2.5670 0.4044 0 7
1.1257 -6.0867 -2.5334 0.4098 0 7
1.2452 -5.9819 -2.5007 0.4151 0 7
1.3611 -5.8772 -2.4691 0.4204 0 7
1.4735 -5.7726 -2.4383 0.4257 0 7
1.5825 -5.6681 -2.4085 0.4310 0 7
1.6883 -5.5637 -2.3796 0.4362 0 7
1.7908 -5.4595 -2.3516 0.4414 0 7
1.8903 -5.3555 -2.3244 0.4466 0 7
1.9867 -5.2517 -2.2981 0.4517 0 6
2.0801 -5.1482 -2.2725 0.4568 0 6
2.1707 -5.0448 -2.2478 0.4618 0 7
2.2585 -4.9417 -2.2238 0.4668 0 7
2.3436 -4.8389 -2.2005 0.4717 0 7
2.4261 -4.7363 -2.1780 0.4766 0 7
2.5059 -4.6340 -2.1561 0.4814 0 7
2.5832 -4.5320 -2.1350 0.4862 0 7
2.6581 -4.4303 -2.1145 0.4909 0 7
2.7306 -4.3288 -2.0947 0.4956 0 7
2.8008 -4.2277 -2.0755 0.5001 0 7
2.8687 -4.1268 -2.0570 0.5047 0 7
2.9343 -4.0262 -2.0390 0.5091 0 7
2.9978 -3.9260 -2.0217 0.5135 0 7
3.0592 -3.8260 -2.0049 0.5178 0 7
3.1185 -3.7263 -1.9887 0.5220 0 7
3.1758 -3.6269 -1.9730 0.5261 0 7
3.2311 -3.5278 -1.9579 0.5302 0 7
3.2845 -3.4290 -1.9433 0.5342 0 7
3.3359 -3.3305 -1.9293 0.5381 0 7
3.3856 -3.2322 -1.9157 0.5419 0 7
3.4334 -3.1343 -1.9026 0.5456 0 7
3.4794 -3.0365 -1.8901 0.5492 0 7
3.5236 -2.9391 -1.8780 0.5528 0 7
3.5662 -2.8419 -1.8663 0.5562 0 7
3.6071 -2.7450 -1.8552 0.5596 0 7
3.6463 -2.6483 -1.8444 0.5628 0 7
3.6839 -2.5519 -1.8342 0.5660 0 7
3.7200 -2.4557 -1.8243 0.5690 0 7
3.7544 -2.3597 -1.8149 0.5720 0 7
3.7873 -2.2640 -1.8059 0.5748 0 7
3.8187 -2.1684 -1.7973 0.5776 0 7
3.8486 -2.0731 -1.7891 0.5802 0 7
3.8771 -1.9779 -1.7814 0.5827 0 7
3.9041 -1.8830 -1.7740 0.5852 0 6
3.9296 -1.7882 -1.7670 0.5875 0 6
3.9538 -1.6936 -1.7604 0.5897 0 7
3.9765 -1.5992 -1.7542 0.5918 0 6
3.9979 -1.5049 -1.7483 0.5937 0 7
4.0179 -1.4108 -1.7429 0.5956 0 7
4.0366 -1.3168 -1.7378 0.5974 0 7
4.0539 -1.2229 -1.7330 0.5990 0 7
4.0699 -1.1292 -1.7286 0.6005 0 7
4.0846 -1.0355 -1.7246 0.6019 0 7
4.0980 -0.9420 -1.7210 0.6032 0 7
4.1102 -0.8486 -1.7177 0.6043 0 7
4.1210 -0.7552 -1.7147 0.6054 0 7
4.1305 -0.6619 -1.7121 0.6063 0 7
4.1388 -0.5687 -1.7098 0.6071 0 7
4.1458 -0.4756 -1.7079 0.6078 0 7
4.1516 -0.3825 -1.7063 0.6084 0 7
4.1561 -0.2894 -1.7051 0.6088 0 7
4.1593 -0.1964 -1.7042 0.6091 0 7
4.1614 -0.1033 -1.7037 0.6093 0 7
4.1621 -0.0103 -1.7035 0.6094 0 7
4.1616 0.0827 -1.7036 0.6093 0 7
4.1599 0.1757 -1.7041 0.6092 0 7
4.1569 0.2687 -1.7049 0.6089 0 7
4.1527 0.3618 -1.7060 0.6085 0 7
4.1472 0.4549 -1.7075 0.6079 0 7
4.1405 0.5480 -1.7094 0.6073 0 7
4.1325 0.6412 -1.7116 0.6065 0 7
4.1232 0.7345 -1.7141 0.6056 0 7
4.1127 0.8278 -1.7170 0.6046 0 7
4.1009 0.9212 -1.7202 0.6035 0 7
4.0877 1.0147 -1.7238 0.6022 0 7
4.0733 1.1083 -1.7277 0.6008 0 7
4.0576 1.2021 -1.7320 0.5993 0 7
4.0406 1.2959 -1.7367 0.5977 0 7
4.0222 1.3899 -1.7417 0.5960 0 7
4.0025 1.4839 -1.7471 0.5942 0 7
3.9814 1.5782 -1.7528 0.5922 0 7
3.9590 1.6726 -1.7590 0.5901 0 7
3.9351 1.7672 -1.7655 0.5880 0 6
3.9099 1.8619 -1.7724 0.5857 0 7
3.8832 1.9568 -1.7797 0.5833 0 7
3.8551 2.0519 -1.7874 0.5808 0 7
3.8255 2.1472 -1.7955 0.5782 0 7
3.7945 2.2427 -1.8039 0.5754 0 7
3.7619 2.3384 -1.8129 0.5726 0 7
3.7278 2.4343 -1.8222 0.5697 0 7
3.6921 2.5305 -1.8319 0.5667 0 7
3.6548 2.6269 -1.8421 0.5635 0 7
3.6160 2.7235 -1.8527 0.5603 0 7
3.5754 2.8204 -1.8638 0.5570 0 7
3.5333 2.9175 -1.8753 0.5535 0 7
3.4894 3.0149 -1.8873 0.5500 0 7
3.4437 3.1125 -1.8998 0.5464 0 7
3.0217 2.8563 -1.7018 0.6312 0 10
2.8898 2.8566 -1.6631 0.6564 0 10
2.7682 2.8614 -1.6295 0.7205 0 10
2.6540 2.8689 -1.5995 0.7407 0 10
2.5370 2.8685 -1.5673 0.6675 0 10
2.4229 2.8661 -1.5360 0.6745 0 10
2.3174 2.8689 -1.5094 0.7512 0 10
2.2088 2.8631 -1.4800 0.7094 0 10
2.1096 2.8646 -1.4561 0.8267 0 10
2.0178 2.8722 -1.4366 0.8483 0 10
1.9334 2.8871 -1.4221 0.9122 0 10
1.8522 2.9041 -1.4097 0.9486 0 10
1.7738 2.9233 -1.3994 0.9301 0 10
1.6953 2.9401 -1.3890 0.9398 0 10
1.6194 2.9594 -1.3807 0.9269 0 10
1.5506 2.9904 -1.3786 0.9205 0 10
1.4806 3.0186 -1.3760 0.9058 0 10
1.4108 3.0468 -1.3742 0.9138 0 10
1.3414 3.0754 -1.3732 0.9462 0 10
1.2761 3.1136 -1.3772 0.9035 0 10
1.2101 3.1516 -1.3817 0.9055 0 10
1.1453 3.1942 -1.3888 0.6300 0 10
1.0845 3.2516 -1.4029 0.6174 0 10
1.0224 3.3101 -1.4179 0.5629 0 10
1.0101 3.5497 -1.5105 0.3099 0 10
0.9786 3.7556 -1.5884 0.3537 0 10
1.0065 4.2500 -1.7875 0.2758 0 10
1.2006 5.6273 -2.3549 0.4163 0 8
1.0885 5.7262 -2.3856 0.4109 0 8
0.9730 5.8252 -2.4171 0.4056 0 8
0.8540 5.9242 -2.4497 0.4002 0 8
0.7313 6.0231 -2.4832 0.3948 0 8
0.6048 6.1220 -2.5178 0.3894 0 8
0.4745 6.2208 -2.5534 0.3839 0 8
0.3402 6.3194 -2.5901 0.3785 0 8
0.2018 6.4178 -2.6279 0.3730 0 8
0.0592 6.5159 -2.6669 0.3676 0 8
-0.0877 6.6137 -2.7070 0.3621 0 8
-0.2390 6.7111 -2.7484 0.3567 0 8
-0.3949 6.8080 -2.7910 0.3512 0 8
-0.5556 6.9044 -2.8349 0.3458 0 8
-0.7210 7.0002 -2.8802 0.3404 0 8
-0.8914 7.0952 -2.9267 0.3350 0 8
-1.0670 7.1895 -2.9747 0.3296 0 8
-1.2477 7.2829 -3.0241 0.3242 0 8
-1.4339 7.3752 -3.0750 0.3188 0 8
-1.6255 7.4664 -3.1274 0.3135 0 8
-1.8228 7.5563 -3.1813 0.3082 0 8
-2.0260 7.6448 -3.2368 0.3029 0 8
-2.2350 7.7318 -3.2940 0.2976 0 8
-2.4502 7.8170 -3.3528 0.2924 0 8
-2.6716 7.9004 -3.4133 0.2872 0 8
-2.8995 7.9817 -3.4756 0.2821 0 8
-3.1338 8.0608 -3.5396 0.2770 0 8
-3.3747 8.1374 -3.6055 0.2719 0 8
-3.6225 8.2114 -3.6732 0.2669 0 8
-3.8772 8.2824 -3.7428 0.2619 0 8
-4.3628 5.8728 -2.9943 0.1519 0 9
-4.3847 5.6348 -2.9221 0.7945 0 9
-4.4650 5.4807 -2.8933 0.9642 0 9
-4.5778 5.3696 -2.8879 0.9660 0 9
-4.7618 5.3390 -2.9280 0.6305 0 9
-6.9261 5.4167 -3.5986 0.8071 0 19
-6.9422 5.1836 -3.5459 0.8191 0 19
-7.1812 5.1162 -3.6087 0.5195 0 19
-3.9823 -8.3103 -3.7716 0.2599 0 8
-3.7248 -8.2405 -3.7012 0.2649 0 8
-3.4742 -8.1677 -3.6327 0.2699 0 8
-3.2540 -8.1510 -3.5920 0.8976 0 8
-3.0434 -8.1477 -3.5597 0.9058 0 8
-2.8364 -8.1442 -3.5296 0.9135 0 8
1.5932 2.9400 -1.4574 0.9532 0 10
1.5176 2.9563 -1.4482 0.9375 0 10
1.4421 2.9707 -1.4392 0.9788 0 10
1.3738 2.9989 -1.4376 0.9463 0 10
1.3065 3.0289 -1.4376 0.8917 0 10
1.2398 3.0604 -1.4391 0.9407 0 10
1.1741 3.0953 -1.4428 0.8965 0 10
1.1099 3.1356 -1.4496 0.8916 0 10
1.0693 3.2502 -1.4912 0.3874 0 10
1.0385 3.4114 -1.5541 0.3101 0 10
1.0003 3.5704 -1.6159 0.3739 0 10
0.9920 3.8718 -1.7419 0.1899 0 10
1.2209 5.2507 -2.3494 0.4401 0 8
1.1167 5.3406 -2.3779 0.4349 0 8
1.0094 5.4304 -2.4072 0.4296 0 8
