ply
format ascii 1.0
element vertex 1402
property float32 x
property float32 y
property float32 z
property float32 CosAngle
property uint32 ObjIdx
property uint32 ObjTag
end_header
6.3017 2.5292 -1.1186 0.3982 0 7
6.2788 2.6843 -1.1249 0.3960 0 7
6.2543 2.8407 -1.1316 0.3937 0 7
6.2282 2.9984 -1.1387 0.3912 0 7
6.2005 3.1576 -1.1463 0.3886 0 7
6.1713 3.3184 -1.1543 0.3859 0 7
5.0488 2.8620 -0.9561 0.4921 0 10
4.7842 2.8551 -0.9178 0.5111 0 10
4.6175 2.8974 -0.8980 0.7637 0 10
4.3460 2.8642 -0.8575 0.5015 0 10
4.1436 2.8657 -0.8300 0.6396 0 10
3.9715 2.8798 -0.8082 0.6321 0 10
3.8288 2.9091 -0.7922 0.6279 0 10
3.7137 2.9547 -0.7818 0.6261 0 10
3.5973 2.9958 -0.7712 0.7115 0 10
3.4598 3.0147 -0.7560 0.7259 0 10
3.3276 3.0328 -0.7417 0.7395 0 10
3.2007 3.0509 -0.7284 0.7623 0 10
3.0788 3.0687 -0.7161 0.7843 0 10
2.9521 3.0770 -0.7025 0.7780 0 10
2.8384 3.0939 -0.6917 0.7999 0 10
2.7316 3.1144 -0.6824 0.8120 0 10
2.6328 3.1406 -0.6751 0.6451 0 10
2.5459 3.1786 -0.6709 0.6499 0 10
2.4832 3.2464 -0.6733 0.4805 0 10
2.4267 3.3237 -0.6780 0.4139 0 10
2.3761 3.4120 -0.6850 0.4386 0 10
2.3235 3.5007 -0.6922 0.4444 0 10
2.2800 3.6074 -0.7030 0.3425 0 10
2.2425 3.7300 -0.7170 0.3362 0 10
2.2113 3.8714 -0.7345 0.3458 0 10
-2.2493 -8.6913 -1.6874 0.2795 0 19
-0.4585 -8.7769 -1.6520 0.5378 0 9
-0.2582 -8.6477 -1.6261 0.9878 0 9
-0.0646 -8.5908 -1.6148 0.8260 0 9
0.1259 -8.4896 -1.5959 0.8402 0 9
0.3183 -8.5623 -1.6105 0.9687 0 9
0.5077 -8.5218 -1.6046 0.9723 0 9
0.6970 -8.4979 -1.6026 0.1678 0 9
0.8776 -8.3938 -1.5863 0.4540 0 9
1.0762 -8.4611 -1.6032 0.5587 0 9
1.2448 -8.3002 -1.5775 0.6159 0 9
1.4518 -8.3974 -1.6018 0.8184 0 9
1.6501 -8.4191 -1.6126 0.8167 0 9
1.8461 -8.4186 -1.6200 0.3489 0 9
2.0304 -8.3614 -1.6173 0.1752 0 9
2.2448 -8.4196 -1.6378 0.3956 0 9
2.4315 -8.3647 -1.6373 0.6076 0 9
2.6412 -8.3827 -1.6520 0.5314 0 9
2.8187 -8.2948 -1.6466 0.6003 0 9
3.0378 -8.3243 -1.6656 0.5925 0 9
3.2965 -8.4426 -1.7036 0.8493 0 9
3.5199 -8.4526 -1.7210 0.2778 0 8
3.6382 -8.2146 -1.6887 0.2831 0 8
3.8459 -8.1846 -1.6998 0.9251 0 8
4.0653 -8.1723 -1.7156 0.9166 0 8
4.1883 -7.9681 -1.6920 0.3134 0 8
4.2978 -7.7510 -1.6659 0.3183 0 8
4.3979 -7.5297 -1.6390 0.3089 0 7
4.4928 -7.3120 -1.6131 0.3138 0 7
4.5834 -7.0991 -1.5883 0.3187 0 7
4.6701 -6.8906 -1.5646 0.3236 0 7
4.7530 -6.6862 -1.5419 0.3283 0 7
4.8323 -6.4860 -1.5203 0.3330 0 7
4.9082 -6.2895 -1.4995 0.3376 0 7
4.9807 -6.0966 -1.4797 0.3421 0 7
5.0501 -5.9071 -1.4608 0.3466 0 7
5.1164 -5.7209 -1.4426 0.3509 0 7
5.1799 -5.5378 -1.4253 0.3552 0 7
5.2406 -5.3576 -1.4087 0.3594 0 7
5.2986 -5.1802 -1.3928 0.3635 0 6
5.3541 -5.0055 -1.3777 0.3675 0 7
5.4071 -4.8333 -1.3632 0.3714 0 7
5.4577 -4.6635 -1.3493 0.3752 0 7
5.5061 -4.4959 -1.3361 0.3789 0 7
5.5522 -4.3305 -1.3235 0.3825 0 7
5.5962 -4.1672 -1.3115 0.3860 0 7
5.6382 -4.0058 -1.3000 0.3894 0 7
5.6782 -3.8463 -1.2891 0.3927 0 7
5.7162 -3.6885 -1.2787 0.3959 0 7
5.7523 -3.5324 -1.2688 0.3990 0 7
5.7867 -3.3779 -1.2594 0.4020 0 7
5.8193 -3.2248 -1.2505 0.4048 0 7
5.8501 -3.0731 -1.2421 0.4076 0 7
5.8793 -2.9228 -1.2341 0.4102 0 7
5.9068 -2.7737 -1.2266 0.4127 0 7
5.9328 -2.6258 -1.2195 0.4151 0 7
5.9572 -2.4790 -1.2128 0.4174 0 7
5.9801 -2.3332 -1.2065 0.4196 0 7
6.0015 -2.1884 -1.2007 0.4216 0 7
6.0214 -2.0445 -1.1953 0.4236 0 7
6.0399 -1.9014 -1.1902 0.4254 0 6
6.0570 -1.7590 -1.1855 0.4270 0 7
6.0727 -1.6174 -1.1812 0.4286 0 6
6.0871 -1.4765 -1.1773 0.4300 0 7
6.1001 -1.3361 -1.1738 0.4313 0 7
6.1117 -1.1962 -1.1706 0.4325 0 7
4.1598 -0.7181 -0.7934 0.2884 24 10
3.9861 -0.5968 -0.7576 0.6335 24 10
3.8963 -0.4946 -0.7382 0.6501 24 10
3.8603 -0.4026 -0.7295 0.9119 24 10
3.8322 -0.3134 -0.7227 0.9206 24 10
3.8083 -0.2259 -0.7171 0.9571 24 10
3.8051 -0.1405 -0.7157 0.6339 24 10
3.8029 -0.0554 -0.7149 0.6346 24 10
3.8021 0.0296 -0.7147 0.6348 24 10
3.8045 0.1146 -0.7154 0.6341 24 10
3.8064 0.1998 -0.7164 0.6332 24 10
3.8237 0.2865 -0.7207 0.9231 24 10
3.8517 0.3753 -0.7274 0.9146 24 10
3.8802 0.4658 -0.7346 0.9057 24 10
3.9583 0.5651 -0.7515 0.6386 24 10
4.0771 0.6753 -0.7768 0.2946 24 10
4.3876 0.8278 -0.8393 0.3631 24 10
6.1038 1.2935 -1.1727 0.4317 0 7
6.0912 1.4337 -1.1762 0.4304 0 7
6.0772 1.5745 -1.1800 0.4290 0 7
6.0620 1.7159 -1.1842 0.4275 0 6
6.0453 1.8580 -1.1887 0.4259 0 7
6.0272 2.0008 -1.1937 0.4241 0 7
6.0077 2.1445 -1.1990 0.4222 0 7
5.9868 2.2890 -1.2047 0.4202 0 7
5.9643 2.4345 -1.2109 0.4181 0 7
5.9404 2.5810 -1.2174 0.4158 0 7
5.9149 2.7286 -1.2244 0.4135 0 7
5.8879 2.8773 -1.2318 0.4110 0 7
5.8592 3.0273 -1.2396 0.4084 0 7
5.2344 2.8543 -1.1206 0.4648 0 10
5.0759 2.9169 -1.1004 0.6973 0 10
4.7220 2.8557 -1.0372 0.5139 0 10
4.5266 2.8775 -1.0082 0.9405 0 10
4.2818 2.8581 -0.9676 0.4318 0 10
4.0710 2.8510 -0.9342 0.5620 0 10
3.8979 2.8616 -0.9089 0.6538 0 10
3.7376 2.8746 -0.8863 0.6583 0 10
3.5844 2.8864 -0.8650 0.7035 0 10
3.4743 2.9281 -0.8540 0.6502 0 10
3.3685 2.9701 -0.8441 0.7302 0 10
3.2572 3.0039 -0.8328 0.7484 0 10
3.1331 3.0217 -0.8182 0.7622 0 10
3.0052 3.0308 -0.8022 0.7757 0 10
2.8910 3.0489 -0.7897 0.8066 0 10
2.7836 3.0703 -0.7790 0.8085 0 10
2.6754 3.0867 -0.7678 0.8202 0 10
2.5700 3.1025 -0.7572 0.8316 0 10
2.4660 3.1161 -0.7469 0.8197 0 10
2.3821 3.1524 -0.7427 0.7562 0 10
2.3113 3.2050 -0.7427 0.5194 0 10
2.2559 3.2802 -0.7483 0.5155 0 10
2.2111 3.3740 -0.7582 0.4908 0 10
2.1635 3.4680 -0.7683 0.4883 0 10
2.1179 3.5701 -0.7802 0.4103 0 10
2.0784 3.6890 -0.7959 0.4022 0 10
2.0423 3.8221 -0.8145 0.3677 0 10
2.0136 3.9798 -0.8384 0.3500 0 10
1.9947 4.1712 -0.8691 0.3037 0 10
3.6731 8.1434 -1.6791 0.2847 0 8
3.5565 8.3795 -1.7110 0.2794 0 8
3.3767 8.4776 -1.7152 0.9151 0 1
3.1597 8.4791 -1.7008 0.9229 0 1
2.9463 8.4805 -1.6875 0.9302 0 1
2.7360 8.4819 -1.6752 0.9370 0 1
2.5287 8.4833 -1.6639 0.9434 0 1
2.3309 8.5098 -1.6584 0.9493 0 1
2.1443 8.5759 -1.6615 0.9547 0 1
1.9421 8.5772 -1.6530 0.9596 0 1
1.7419 8.5786 -1.6453 0.9641 0 1
1.5435 8.5799 -1.6386 0.9681 0 1
1.3466 8.5812 -1.6327 0.9716 0 1
1.1510 8.5825 -1.6276 0.9746 0 1
0.9566 8.5839 -1.6234 0.9771 0 1
0.7707 8.6718 -1.6364 0.2011 0 1
0.5834 8.7865 -1.6551 0.9807 0 1
0.3888 8.8378 -1.6628 0.9818 0 1
0.1911 8.8391 -1.6618 0.9823 0 1
-0.0063 8.8405 -1.6617 0.9824 0 1
-0.2039 8.8418 -1.6624 0.9820 0 1
-0.4017 8.8431 -1.6639 0.9811 0 1
-0.6000 8.8445 -1.6662 0.9797 0 1
-0.7989 8.8459 -1.6694 0.9778 0 1
-0.9988 8.8472 -1.6735 0.9755 0 1
-1.1996 8.8486 -1.6784 0.9726 0 1
-1.4018 8.8500 -1.6842 0.9693 0 1
-1.6000 8.8214 -1.6851 0.9655 0 1
-1.8048 8.8228 -1.6927 0.9612 0 1
-2.0114 8.8242 -1.7012 0.9564 0 1
-2.2202 8.8257 -1.7106 0.9511 0 1
-2.4303 8.8227 -1.7201 0.3071 0 1
-2.5598 8.5431 -1.6763 0.9392 0 1
-2.7697 8.5445 -1.6883 0.9325 0 1
-2.9828 8.5460 -1.7013 0.9253 0 1
-3.3174 8.8632 -1.7788 0.9177 0 1
-3.5457 8.8647 -1.7946 0.9097 0 1
-3.7782 8.8663 -1.8115 0.9011 0 1
-4.0152 8.8680 -1.8297 0.8922 0 1
-4.2331 8.8195 -1.8388 0.8827 0 1
-4.7663 5.4831 -1.3656 0.8230 0 9
-4.8405 5.3235 -1.3524 0.9988 0 9
-4.9634 5.2195 -1.3538 0.9978 0 9
-5.1985 5.2278 -1.3858 0.1976 0 9
-2.2612 -8.5304 -1.6588 0.2849 0 19
-2.2721 -9.4158 -1.8206 0.2644 0 19
-0.3093 -8.6523 -1.6273 0.9871 0 9
-0.1151 -8.5962 -1.6159 0.8255 0 9
0.0758 -8.4705 -1.5922 0.8422 0 9
0.2633 -8.4128 -1.5820 0.1690 0 9
0.4580 -8.5324 -1.6061 0.9714 0 9
0.6457 -8.4834 -1.5992 0.1558 0 9
0.8366 -8.4829 -1.6022 0.6367 0 9
1.0272 -8.4728 -1.6042 0.5584 0 9
1.1984 -8.3238 -1.5807 0.6147 0 9
1.4028 -8.4076 -1.6021 0.6693 0 9
1.5808 -8.3243 -1.5926 0.5726 0 9
1.8089 -8.4867 -1.6310 0.2539 0 9
1.9900 -8.4103 -1.6245 0.3830 0 9
2.1869 -8.4004 -1.6316 0.5219 0 9
2.3864 -8.3929 -1.6401 0.6065 0 9
2.5925 -8.4000 -1.6524 0.5313 0 9
2.7876 -8.3643 -1.6572 0.5964 0 9
2.9951 -8.3595 -1.6691 0.3697 0 9
3.2461 -8.4599 -1.7032 0.7028 0 9
3.4879 -8.5162 -1.7298 0.2764 0 8
3.6076 -8.2765 -1.6970 0.2817 0 8
3.7888 -8.1878 -1.6958 0.9273 0 8
4.0072 -8.1756 -1.7114 0.9188 0 8
4.1587 -8.0259 -1.6990 0.3121 0 8
4.2695 -7.8076 -1.6726 0.3170 0 8
4.3722 -7.5877 -1.6460 0.3076 0 7
4.4682 -7.3688 -1.6198 0.3125 0 7
4.5600 -7.1546 -1.5947 0.3175 0 7
4.6477 -6.9450 -1.5707 0.3223 0 7
4.7316 -6.7396 -1.5478 0.3271 0 7
4.8118 -6.5382 -1.5259 0.3318 0 7
4.8886 -6.3408 -1.5049 0.3364 0 7
4.9619 -6.1470 -1.4848 0.3409 0 7
5.0321 -5.9566 -1.4657 0.3454 0 7
5.0993 -5.7696 -1.4473 0.3498 0 7
5.1635 -5.5856 -1.4298 0.3541 0 7
5.2249 -5.4047 -1.4130 0.3583 0 7
5.2836 -5.2266 -1.3969 0.3624 0 6
5.3398 -5.0512 -1.3816 0.3664 0 7
5.3934 -4.8783 -1.3669 0.3704 0 7
5.4446 -4.7079 -1.3529 0.3742 0 7
5.4936 -4.5397 -1.3395 0.3779 0 7
5.5403 -4.3738 -1.3268 0.3816 0 7
5.5849 -4.2100 -1.3146 0.3851 0 7
5.6274 -4.0481 -1.3030 0.3885 0 7
5.6678 -3.8881 -1.2919 0.3919 0 7
5.7064 -3.7298 -1.2814 0.3951 0 7
5.7430 -3.5733 -1.2714 0.3982 0 7
5.7778 -3.4183 -1.2618 0.4012 0 7
5.8109 -3.2649 -1.2528 0.4041 0 7
5.8422 -3.1129 -1.2443 0.4069 0 7
5.8718 -2.9622 -1.2362 0.4095 0 7
5.8998 -2.8128 -1.2285 0.4121 0 7
5.9261 -2.6646 -1.2213 0.4145 0 7
5.9510 -2.5175 -1.2145 0.4168 0 7
5.9742 -2.3714 -1.2082 0.4190 0 7
5.9960 -2.2264 -1.2022 0.4211 0 7
6.0163 -2.0822 -1.1966 0.4231 0 7
6.0352 -1.9389 -1.1915 0.4249 0 7
6.0527 -1.7964 -1.1867 0.4266 0 6
6.0687 -1.6546 -1.1823 0.4282 0 6
6.0834 -1.5134 -1.1783 0.4296 0 7
6.0968 -1.3729 -1.1747 0.4310 0 7
6.1088 -1.2329 -1.1714 0.4322 0 7
4.2474 -0.7589 -0.8110 0.2130 24 10
4.0105 -0.6245 -0.7629 0.6291 24 10
3.9195 -0.5209 -0.7432 0.6458 24 10
3.8678 -0.4264 -0.7314 0.9096 24 10
3.8396 -0.3367 -0.7245 0.9183 24 10
3.8118 -0.2486 -0.7180 0.9568 24 10
3.8056 -0.1629 -0.7160 0.6336 24 10
3.8035 -0.0777 -0.7151 0.6344 24 10
3.8014 0.0072 -0.7145 0.6349 24 10
3.8039 0.0922 -0.7152 0.6343 24 10
3.8060 0.1774 -0.7161 0.6335 24 10
3.8164 0.2634 -0.7190 0.9252 24 10
3.8443 0.3518 -0.7256 0.9169 24 10
3.8727 0.4418 -0.7326 0.9081 24 10
3.9346 0.5382 -0.7464 0.6430 24 10
4.0264 0.6426 -0.7664 0.6262 24 10
4.3102 0.7871 -0.8235 0.2097 24 10
6.1069 1.2567 -1.1719 0.4320 0 7
6.0946 1.3968 -1.1752 0.4308 0 7
6.0810 1.5374 -1.1790 0.4294 0 7
6.0661 1.6786 -1.1830 0.4279 0 7
6.0498 1.8206 -1.1875 0.4263 0 6
6.0321 1.9632 -1.1923 0.4246 0 7
6.0130 2.1067 -1.1976 0.4227 0 7
5.9924 2.2510 -1.2032 0.4208 0 7
5.9704 2.3962 -1.2092 0.4187 0 7
5.9468 2.5424 -1.2156 0.4164 0 7
5.9218 2.6897 -1.2225 0.4141 0 7
5.8951 2.8381 -1.2298 0.4117 0 7
5.8669 2.9877 -1.2375 0.4091 0 7
5.8370 3.1386 -1.2457 0.4064 0 7
5.0341 2.8537 -1.0877 0.4901 0 10
4.7954 2.8617 -1.0496 0.7924 0 10
4.5665 2.8654 -1.0133 0.5277 0 10
4.3499 2.8668 -0.9792 0.4594 0 10
4.1224 2.8510 -0.9421 0.5573 0 10
3.9410 2.8578 -0.9150 0.6508 0 10
3.7793 2.8715 -0.8921 0.6540 0 10
3.6233 2.8828 -0.8703 0.6613 0 10
3.5028 2.9171 -0.8568 0.6596 0 10
3.3967 2.9597 -0.8468 0.6557 0 10
3.2907 2.9992 -0.8369 0.7448 0 10
3.1654 3.0172 -0.8219 0.7587 0 10
3.0362 3.0263 -0.8058 0.7723 0 10
2.9203 3.0439 -0.7929 0.8034 0 10
2.8126 3.0659 -0.7820 0.8053 0 10
2.7035 3.0824 -0.7707 0.8172 0 10
2.5974 3.0984 -0.7599 0.8287 0 10
2.4941 3.1138 -0.7499 0.8398 0 10
2.4036 3.1422 -0.7436 0.7553 0 10
2.3272 3.1874 -0.7418 0.6458 0 10
2.2705 3.2603 -0.7468 0.5166 0 10
2.2238 3.3504 -0.7558 0.4923 0 10
2.1758 3.4426 -0.7655 0.4901 0 10
2.1282 3.5399 -0.7764 0.4832 0 10
2.0890 3.6574 -0.7917 0.4044 0 10
-2.2059 -8.5234 -1.8610 0.2843 0 19
-2.2114 -9.4061 -2.0425 0.2638 0 19
-1.4323 -8.6612 -1.8557 0.4979 0 9
-1.2390 -8.6943 -1.8564 0.9531 0 9
-1.0394 -8.6773 -1.8473 0.8371 0 9
-0.8449 -8.6949 -1.8466 0.1790 0 9
-0.6640 -8.8921 -1.8848 0.3994 0 9
-0.4497 -8.6084 -1.8221 0.9963 0 9
-0.2550 -8.5395 -1.8059 0.4402 0 9
-0.0627 -8.3411 -1.7632 0.0722 0 9
0.1233 -8.3142 -1.7577 0.3069 0 9
0.3117 -8.3825 -1.7731 0.8626 0 9
0.4995 -8.3851 -1.7756 0.3203 0 9
0.6862 -8.3654 -1.7742 0.2782 0 9
0.8678 -8.2992 -1.7638 0.3779 0 9
1.0526 -8.2753 -1.7633 0.5968 0 9
1.2506 -8.3392 -1.7825 0.3835 0 9
1.4491 -8.3816 -1.7980 0.3105 0 9
1.6303 -8.3182 -1.7918 0.5664 0 9
1.8308 -8.3488 -1.8067 0.3774 0 9
2.0367 -8.3876 -1.8245 0.7068 0 9
2.2317 -8.3705 -1.8311 0.4482 0 9
2.4158 -8.3105 -1.8294 0.4230 0 9
2.6955 -8.5549 -1.8960 0.8009 0 9
2.8563 -8.4053 -1.8765 0.5761 0 9
3.0149 -8.2618 -1.8590 0.2879 0 8
3.1956 -8.1844 -1.8572 0.9479 0 8
3.4034 -8.1729 -1.8714 0.9407 0 8
3.5650 -8.0493 -1.8609 0.3190 0 8
3.6851 -7.8426 -1.8317 0.3241 0 8
3.7986 -7.6361 -1.8028 0.3144 0 7
3.9045 -7.4282 -1.7739 0.3195 0 7
4.0059 -7.2244 -1.7462 0.3246 0 7
4.1030 -7.0248 -1.7196 0.3296 0 7
4.1959 -6.8289 -1.6942 0.3345 0 7
4.2850 -6.6368 -1.6699 0.3394 0 7
4.3703 -6.4481 -1.6466 0.3442 0 7
4.4520 -6.2628 -1.6242 0.3490 0 7
4.5303 -6.0806 -1.6028 0.3536 0 7
4.6053 -5.9014 -1.5823 0.3582 0 7
4.6772 -5.7251 -1.5627 0.3627 0 7
4.7460 -5.5515 -1.5439 0.3671 0 7
4.8120 -5.3805 -1.5258 0.3715 0 7
4.8752 -5.2120 -1.5086 0.3757 0 6
4.9357 -5.0459 -1.4920 0.3799 0 7
4.9936 -4.8820 -1.4762 0.3839 0 7
5.0490 -4.7203 -1.4610 0.3879 0 7
5.1021 -4.5606 -1.4465 0.3918 0 7
5.1528 -4.4029 -1.4327 0.3956 0 7
5.2013 -4.2471 -1.4194 0.3993 0 7
5.2476 -4.0930 -1.4068 0.4029 0 7
5.2919 -3.9406 -1.3947 0.4064 0 7
5.3341 -3.7898 -1.3831 0.4098 0 7
5.3743 -3.6405 -1.3721 0.4131 0 7
5.4127 -3.4927 -1.3616 0.4162 0 7
5.4491 -3.3462 -1.3517 0.4193 0 7
5.4838 -3.2010 -1.3422 0.4223 0 7
5.5167 -3.0571 -1.3332 0.4251 0 7
5.5479 -2.9144 -1.3247 0.4279 0 7
5.5774 -2.7727 -1.3166 0.4305 0 7
5.6053 -2.6321 -1.3090 0.4330 0 7
5.6316 -2.4925 -1.3018 0.4354 0 7
5.6564 -2.3538 -1.2950 0.4377 0 7
5.6796 -2.2159 -1.2887 0.4398 0 7
5.7013 -2.0789 -1.2828 0.4418 0 7
5.7215 -1.9426 -1.2772 0.4438 0 7
5.7403 -1.8070 -1.2721 0.4455 0 6
5.7577 -1.6721 -1.2673 0.4472 0 7
5.7736 -1.5378 -1.2630 0.4488 0 7
5.7882 -1.4040 -1.2590 0.4502 0 7
5.8014 -1.2707 -1.2554 0.4515 0 7
5.8133 -1.1378 -1.2521 0.4526 0 7
4.0664 -0.7020 -0.8723 0.2937 24 10
3.9515 -0.5916 -0.8446 0.6362 24 10
3.8884 -0.4936 -0.8285 0.7564 24 10
3.8517 -0.4017 -0.8186 0.9099 24 10
3.8237 -0.3126 -0.8109 0.9185 24 10
3.8100 -0.2260 -0.8068 0.9524 24 10
3.7966 -0.1402 -0.8031 0.9567 24 10
3.7834 -0.0551 -0.7998 0.9606 24 10
3.7815 0.0294 -0.7994 0.9539 24 10
3.7926 0.1142 -0.8020 0.9580 24 10
3.8059 0.1998 -0.8056 0.9537 24 10
3.8191 0.2862 -0.8095 0.9501 24 10
3.8431 0.3744 -0.8162 0.9126 24 10
3.8714 0.4647 -0.8242 0.9037 24 10
3.9318 0.5613 -0.8395 0.7465 24 10
4.0156 0.6651 -0.8604 0.6245 24 10
4.2599 0.8038 -0.9163 0.2796 24 10
5.8052 1.2302 -1.2544 0.4518 0 7
5.7924 1.3634 -1.2579 0.4506 0 7
5.7782 1.4970 -1.2617 0.4492 0 7
5.7627 1.6312 -1.2660 0.4477 0 7
5.7457 1.7659 -1.2706 0.4461 0 6
5.7274 1.9013 -1.2756 0.4443 0 7
5.7076 2.0374 -1.2810 0.4424 0 7
5.6863 2.1742 -1.2868 0.4404 0 7
5.6636 2.3118 -1.2931 0.4383 0 7
5.6393 2.4502 -1.2997 0.4361 0 7
5.6135 2.5895 -1.3068 0.4337 0 7
5.5861 2.7298 -1.3142 0.4313 0 7
5.5571 2.8712 -1.3222 0.4287 0 7
5.5264 3.0136 -1.3306 0.4260 0 7
5.0800 2.9192 -1.2385 0.8695 0 10
4.7224 2.8559 -1.1666 0.5116 0 10
4.5085 2.8660 -1.1293 0.5301 0 10
4.2898 2.8635 -1.0902 0.5809 0 10
4.0747 2.8535 -1.0515 0.5453 0 10
3.8848 2.8520 -1.0187 0.5708 0 10
3.7129 2.8556 -0.9901 0.6597 0 10
3.5611 2.8676 -0.9665 0.6696 0 10
3.4143 2.8775 -0.9438 0.6804 0 10
3.2710 2.8841 -0.9218 0.3999 0 10
3.1797 2.9324 -0.9143 0.6778 0 10
3.0812 2.9716 -0.9048 0.7611 0 10
2.9727 2.9981 -0.8925 0.8028 0 10
2.8648 3.0213 -0.8801 0.8110 0 10
2.7563 3.0401 -0.8674 0.8228 0 10
2.6500 3.0574 -0.8552 0.8322 0 10
2.5463 3.0739 -0.8437 0.8436 0 10
2.4448 3.0892 -0.8327 0.8438 0 10
2.3436 3.1014 -0.8217 0.7635 0 10
2.2515 3.1221 -0.8137 0.7724 0 10
2.1803 3.1703 -0.8133 0.6992 0 10
2.1219 3.2380 -0.8183 0.5713 0 10
2.0735 3.3238 -0.8281 0.4835 0 10
2.0299 3.4218 -0.8410 0.5103 0 10
1.9856 3.5243 -0.8551 0.5019 0 10
1.9465 3.6429 -0.8731 0.4303 0 10
1.9074 3.7699 -0.8931 0.4257 0 10
1.8769 3.9248 -0.9196 0.3548 0 10
1.8464 4.0935 -0.9492 0.3197 0 10
1.8137 4.2733 -0.9813 0.1769 0 10
3.1769 7.9759 -1.8148 0.2949 0 8
3.0536 8.1942 -1.8485 0.2896 0 8
2.9245 8.4180 -1.8837 0.2841 0 8
2.7361 8.4823 -1.8840 0.9328 0 1
2.5288 8.4837 -1.8713 0.9391 0 1
2.3310 8.5102 -1.8651 0.9450 0 1
2.1444 8.5763 -1.8687 0.9504 0 1
1.9422 8.5776 -1.8590 0.9553 0 1
1.7420 8.5789 -1.8504 0.9597 0 1
1.5436 8.5803 -1.8428 0.9637 0 1
1.3467 8.5816 -1.8362 0.9672 0 1
1.1511 8.5829 -1.8305 0.9702 0 1
0.9566 8.5842 -1.8258 0.9727 0 1
0.7630 8.5855 -1.8220 0.9747 0 1
0.5701 8.5868 -1.8191 0.9763 0 1
0.3778 8.5881 -1.8171 0.9773 0 1
0.1857 8.5894 -1.8161 0.9779 0 1
-0.0063 8.7460 -1.8487 0.1993 0 1
-0.2028 8.7922 -1.8590 0.9775 0 1
-0.4017 8.8435 -1.8713 0.9767 0 1
-0.6000 8.8449 -1.8739 0.9753 0 1
-0.7990 8.8462 -1.8775 0.9734 0 1
-0.9988 8.8476 -1.8821 0.9711 0 1
-1.1929 8.7989 -1.8769 0.9682 0 1
-1.4019 8.8504 -1.8941 0.9649 0 1
-1.6055 8.8518 -1.9016 0.9611 0 1
-1.8110 8.8532 -1.9101 0.9568 0 1
-2.0183 8.8546 -1.9197 0.9520 0 1
-2.2203 8.8261 -1.9238 0.9468 0 1
-2.4248 8.8031 -1.9301 0.3118 0 1
-2.5600 8.5434 -1.8852 0.9349 0 1
-2.7699 8.5449 -1.8987 0.9282 0 1
-3.0931 8.8620 -1.9841 0.9211 0 1
-3.3175 8.8636 -2.0005 0.9136 0 1
-3.5458 8.8651 -2.0182 0.9055 0 1
-3.7783 8.8668 -2.0373 0.8971 0 1
-4.0154 8.8684 -2.0578 0.8881 0 1
-4.7396 5.4524 -1.5271 0.8470 0 9
-4.8302 5.3122 -1.5177 0.9923 0 9
-4.9597 5.2156 -1.5214 0.6877 0 9
-5.2699 5.2996 -1.5798 0.2329 0 9
-2.2501 -8.4883 -1.8562 0.9478 0 19
-2.2211 -9.2045 -2.0015 0.2692 0 19
-1.4983 -8.7408 -1.8746 0.3455 0 9
-1.2864 -8.6624 -1.8511 0.3794 0 9
-1.0926 -8.6891 -1.8512 0.9605 0 9
-0.8827 -8.5611 -1.8192 0.9579 0 9
-0.7022 -8.7138 -1.8479 0.2310 0 9
-0.4972 -8.5531 -1.8110 0.2181 0 9
-0.3048 -8.5264 -1.8035 0.4408 0 9
-0.1168 -8.7257 -1.8446 0.6612 0 9
0.0742 -8.2914 -1.7527 0.7380 0 9
0.2625 -8.3853 -1.7734 0.8624 0 9
0.4431 -8.2535 -1.7471 0.3600 0 9
0.6473 -8.5039 -1.8028 0.5651 0 9
0.8174 -8.2883 -1.7605 0.2485 0 9
1.0309 -8.5036 -1.8107 0.8302 0 9
1.1996 -8.3322 -1.7794 0.3841 0 9
1.3816 -8.2805 -1.7745 0.1770 0 9
1.5926 -8.3865 -1.8044 0.5624 0 9
1.7801 -8.3514 -1.8050 0.2258 0 9
1.9669 -8.3126 -1.8056 0.0992 0 9
2.1671 -8.3241 -1.8182 0.2408 0 9
2.3905 -8.4075 -1.8476 0.4303 0 9
2.6122 -8.4637 -1.8723 0.8330 0 9
2.8487 -8.5475 -1.9045 0.2811 0 8
2.9811 -8.3205 -1.8683 0.2865 0 8
3.1415 -8.1874 -1.8537 0.9497 0 8
3.3485 -8.1759 -1.8676 0.9427 0 8
3.5326 -8.1043 -1.8688 0.3177 0 8
3.6540 -7.8965 -1.8392 0.3228 0 8
3.7700 -7.6915 -1.8106 0.3130 0 7
3.8771 -7.4824 -1.7814 0.3182 0 7
3.9797 -7.2776 -1.7533 0.3233 0 7
4.0779 -7.0769 -1.7265 0.3283 0 7
4.1719 -6.8801 -1.7008 0.3332 0 7
4.2619 -6.6870 -1.6762 0.3381 0 7
4.3482 -6.4974 -1.6526 0.3430 0 7
4.4308 -6.3112 -1.6300 0.3477 0 7
4.5100 -6.1281 -1.6084 0.3524 0 7
4.5859 -5.9482 -1.5876 0.3570 0 7
4.6586 -5.7711 -1.5678 0.3615 0 7
4.7282 -5.5969 -1.5487 0.3660 0 7
4.7949 -5.4252 -1.5305 0.3703 0 7
4.8588 -5.2561 -1.5130 0.3746 0 6
4.9200 -5.0893 -1.4963 0.3788 0 7
4.9786 -4.9249 -1.4803 0.3829 0 7
5.0347 -4.7626 -1.4650 0.3869 0 7
5.0884 -4.6024 -1.4503 0.3908 0 7
5.1397 -4.4442 -1.4363 0.3946 0 7
5.1888 -4.2879 -1.4228 0.3983 0 7
5.2357 -4.1333 -1.4100 0.4020 0 7
5.2804 -3.9805 -1.3978 0.4055 0 7
5.3232 -3.8293 -1.3861 0.4089 0 7
5.3639 -3.6796 -1.3750 0.4122 0 7
5.4028 -3.5314 -1.3644 0.4154 0 7
5.4397 -3.3846 -1.3543 0.4185 0 7
5.4749 -3.2391 -1.3446 0.4215 0 7
5.5082 -3.0948 -1.3355 0.4244 0 7
5.5399 -2.9518 -1.3269 0.4271 0 7
5.5698 -2.8099 -1.3187 0.4298 0 7
5.5982 -2.6690 -1.3109 0.4323 0 7
5.6249 -2.5291 -1.3036 0.4348 0 7
5.6500 -2.3902 -1.2968 0.4371 0 7
5.6736 -2.2521 -1.2903 0.4393 0 7
5.6957 -2.1149 -1.2843 0.4413 0 7
5.7163 -1.9784 -1.2786 0.4433 0 7
5.7355 -1.8426 -1.2734 0.4451 0 6
5.7533 -1.7075 -1.2686 0.4468 0 7
5.7696 -1.5730 -1.2641 0.4484 0 6
5.7845 -1.4391 -1.2600 0.4498 0 7
5.7981 -1.3057 -1.2563 0.4511 0 7
5.8103 -1.1727 -1.2530 0.4524 0 7
4.1373 -0.7393 -0.8884 0.2884 24 10
3.9754 -0.6190 -0.8505 0.6318 24 10
3.9047 -0.5190 -0.8326 0.7527 24 10
3.8591 -0.4254 -0.8207 0.9076 24 10
3.8310 -0.3359 -0.8129 0.9163 24 10
3.8134 -0.2487 -0.8078 0.9521 24 10
3.8001 -0.1627 -0.8040 0.9556 24 10
3.7869 -0.0774 -0.8006 0.9597 24 10
3.7802 0.0072 -0.7991 0.9542 24 10
3.7891 0.0919 -0.8012 0.9590 24 10
3.8024 0.1772 -0.8046 0.9549 24 10
3.8157 0.2634 -0.8085 0.9513 24 10
3.8357 0.3510 -0.8142 0.9148 24 10
3.8639 0.4408 -0.8221 0.9061 24 10
3.9153 0.5355 -0.8353 0.7503 24 10
3.9911 0.6370 -0.8543 0.6289 24 10
4.1845 0.7641 -0.8992 0.2849 24 10
5.8084 1.1953 -1.2535 0.4522 0 7
5.7959 1.3283 -1.2569 0.4509 0 7
5.7821 1.4618 -1.2607 0.4496 0 7
5.7669 1.5958 -1.2648 0.4481 0 7
5.7503 1.7304 -1.2693 0.4465 0 6
5.7324 1.8657 -1.2743 0.4448 0 7
5.7129 2.0015 -1.2796 0.4429 0 7
5.6921 2.1381 -1.2853 0.4410 0 7
5.6697 2.2755 -1.2914 0.4389 0 7
5.6459 2.4137 -1.2979 0.4367 0 7
5.6204 2.5528 -1.3049 0.4344 0 7
5.5935 2.6929 -1.3122 0.4319 0 7
5.5649 2.8339 -1.3200 0.4294 0 7
5.5346 2.9760 -1.3283 0.4267 0 7
5.0806 2.8800 -1.2345 0.8724 0 10
4.8328 2.8840 -1.1896 0.5067 0 10
4.5532 2.8570 -1.1362 0.5252 0 10
4.3415 2.8613 -1.0991 0.7938 0 10
4.1283 2.8551 -1.0610 0.5130 0 10
3.9336 2.8524 -1.0271 0.5661 0 10
3.7545 2.8526 -0.9967 0.5966 0 10
3.6008 2.8649 -0.9727 0.6654 0 10
3.4523 2.8750 -0.9497 0.6789 0 10
3.3023 2.8774 -0.9258 0.6473 0 10
3.2065 2.9225 -0.9171 0.7207 0 10
3.1074 2.9619 -0.9074 0.7123 0 10
3.0024 2.9927 -0.8961 0.7995 0 10
2.8905 3.0128 -0.8826 0.8076 0 10
2.7845 3.0352 -0.8707 0.8198 0 10
2.6777 3.0530 -0.8584 0.8292 0 10
2.5733 3.0696 -0.8467 0.8406 0 10
2.4715 3.0856 -0.8357 0.8408 0 10
2.3710 3.0996 -0.8249 0.8507 0 10
2.2714 3.1110 -0.8142 0.8409 0 10
2.1980 3.1561 -0.8130 0.8334 0 10
2.1359 3.2180 -0.8164 0.5727 0 10
2.0858 3.3001 -0.8252 0.4852 0 10
2.0412 3.3953 -0.8374 0.5125 0 10
1.9974 3.4970 -0.8513 0.5041 0 10
-2.4640 -8.7135 -2.1282 0.9097 0 9
-2.1968 -8.4883 -2.0607 0.9445 0 19
-2.1614 -9.1936 -2.2196 0.2686 0 19
-1.6175 -8.5847 -2.0531 0.9787 0 9
-1.3955 -8.4383 -2.0101 0.5280 0 9
-1.2084 -8.4798 -2.0131 0.8522 0 9
-1.0261 -8.5666 -2.0277 0.8460 0 9
-0.8303 -8.5440 -2.0175 0.6247 0 9
-0.6300 -8.4365 -1.9883 0.0895 0 9
-0.4419 -8.4594 -1.9909 0.5474 0 9
-0.2520 -8.4378 -1.9840 0.5882 0 9
-0.0627 -8.3358 -1.9592 0.4940 0 9
0.1248 -8.4153 -1.9780 0.7156 0 9
0.3131 -8.4221 -1.9808 0.7177 0 9
0.5058 -8.4910 -1.9991 0.9199 0 9
0.6857 -8.3603 -1.9715 0.6052 0 9
0.8754 -8.3724 -1.9784 0.3092 0 9
1.0709 -8.4188 -1.9946 0.4606 0 9
1.2540 -8.3621 -1.9873 0.3798 0 9
1.4381 -8.3182 -1.9840 0.5489 0 9
1.6526 -8.4319 -2.0194 0.5419 0 9
1.8520 -8.4453 -2.0320 0.7937 0 9
2.0718 -8.5323 -2.0635 0.7233 0 9
2.2465 -8.4262 -2.0495 0.5224 0 9
2.4058 -8.2759 -2.0255 0.2923 0 8
2.5781 -8.1825 -2.0163 0.9659 0 8
2.7769 -8.1717 -2.0284 0.9601 0 8
2.9558 -8.0997 -2.0264 0.3241 0 8
3.0862 -7.9041 -1.9942 0.3293 0 8
3.2114 -7.7117 -1.9633 0.3194 0 7
3.3280 -7.5141 -1.9315 0.3246 0 7
3.4397 -7.3203 -1.9009 0.3298 0 7
3.5469 -7.1301 -1.8716 0.3350 0 7
3.6496 -6.9433 -1.8435 0.3401 0 7
3.7482 -6.7597 -1.8166 0.3452 0 7
3.8428 -6.5793 -1.7907 0.3501 0 7
3.9336 -6.4019 -1.7659 0.3551 0 7
4.0206 -6.2274 -1.7421 0.3599 0 7
4.1042 -6.0556 -1.7193 0.3647 0 7
4.1844 -5.8864 -1.6974 0.3694 0 7
4.2614 -5.7196 -1.6763 0.3740 0 7
4.3352 -5.5553 -1.6561 0.3786 0 7
4.4061 -5.3933 -1.6368 0.3831 0 7
4.4741 -5.2334 -1.6182 0.3875 0 6
4.5393 -5.0756 -1.6004 0.3918 0 7
4.6019 -4.9198 -1.5833 0.3960 0 7
4.6618 -4.7659 -1.5669 0.4002 0 7
4.7193 -4.6139 -1.5512 0.4042 0 7
4.7744 -4.4636 -1.5361 0.4082 0 7
4.8272 -4.3149 -1.5217 0.4121 0 7
4.8777 -4.1678 -1.5079 0.4158 0 7
4.9260 -4.0223 -1.4947 0.4195 0 7
4.9723 -3.8782 -1.4820 0.4231 0 7
5.0164 -3.7355 -1.4699 0.4266 0 7
5.0586 -3.5941 -1.4584 0.4299 0 7
5.0989 -3.4539 -1.4474 0.4332 0 7
5.1373 -3.3150 -1.4369 0.4364 0 7
5.1738 -3.1771 -1.4269 0.4394 0 7
5.2086 -3.0404 -1.4174 0.4424 0 7
5.2416 -2.9047 -1.4084 0.4452 0 7
5.2729 -2.7699 -1.3998 0.4479 0 7
5.3026 -2.6361 -1.3917 0.4505 0 7
5.3306 -2.5031 -1.3841 0.4530 0 7
5.3571 -2.3710 -1.3768 0.4554 0 7
5.3820 -2.2396 -1.3700 0.4577 0 7
5.4053 -2.1089 -1.3636 0.4598 0 7
5.4272 -1.9790 -1.3577 0.4618 0 7
5.4476 -1.8496 -1.3521 0.4637 0 6
5.4665 -1.7209 -1.3469 0.4655 0 7
5.4841 -1.5926 -1.3421 0.4672 0 6
5.5002 -1.4649 -1.3377 0.4687 0 7
5.5149 -1.3377 -1.3337 0.4701 0 7
5.5282 -1.2108 -1.3301 0.4714 0 7
4.5392 -0.8884 -1.0871 0.9786 24 10
4.0088 -0.6920 -0.9561 0.7252 24 10
3.9438 -0.5904 -0.9372 0.7398 24 10
3.8813 -0.4927 -0.9195 0.7540 24 10
3.8429 -0.4008 -0.9081 0.9074 24 10
3.8248 -0.3127 -0.9019 0.9434 24 10
3.8117 -0.2261 -0.8974 0.9472 24 10
3.7983 -0.1402 -0.8933 0.9515 24 10
3.7912 -0.0552 -0.8911 0.9466 24 10
3.7898 0.0294 -0.8907 0.9470 24 10
3.7946 0.1143 -0.8922 0.9454 24 10
3.8076 0.1999 -0.8961 0.9485 24 10
3.8208 0.2863 -0.9005 0.9449 24 10
3.8344 0.3736 -0.9054 0.9100 24 10
3.8627 0.4637 -0.9143 0.7583 24 10
3.9245 0.5603 -0.9317 0.7442 24 10
3.9887 0.6607 -0.9502 0.7297 24 10
4.2320 0.7985 -1.0122 0.1731 24 10
5.5320 1.1723 -1.3290 0.4718 0 7
5.5191 1.2990 -1.3326 0.4705 0 7
5.5048 1.4262 -1.3365 0.4692 0 7
5.4891 1.5537 -1.3408 0.4677 0 7
5.4720 1.6818 -1.3454 0.4660 0 7
5.4535 1.8104 -1.3505 0.4643 0 6
5.4336 1.9395 -1.3559 0.4624 0 7
5.4122 2.0693 -1.3618 0.4604 0 7
5.3892 2.1998 -1.3680 0.4583 0 7
5.3648 2.3309 -1.3747 0.4561 0 7
5.3388 2.4628 -1.3818 0.4538 0 7
5.3113 2.5956 -1.3894 0.4513 0 7
5.2821 2.7291 -1.3973 0.4487 0 7
5.2513 2.8636 -1.4058 0.4460 0 7
4.9675 2.8546 -1.3465 0.4903 0 10
4.7411 2.8672 -1.3022 0.8077 0 10
4.5089 2.8662 -1.2557 0.5274 0 10
4.2995 2.8700 -1.2149 0.6645 0 10
4.0897 2.8640 -1.1734 0.5132 0 10
3.8886 2.8547 -1.1337 0.5324 0 10
3.7091 2.8527 -1.0997 0.5915 0 10
3.5438 2.8537 -1.0693 0.6220 0 10
3.3959 2.8620 -1.0438 0.6910 0 10
3.2565 2.8713 -1.0204 0.6962 0 10
3.1229 2.8801 -0.9984 0.7193 0 10
3.0101 2.9031 -0.9829 0.7539 0 10
2.9170 2.9419 -0.9737 0.7427 0 10
2.8254 2.9798 -0.9651 0.8196 0 10
2.7289 3.0099 -0.9549 0.8283 0 10
2.6245 3.0280 -0.9417 0.8399 0 10
2.5229 3.0457 -0.9295 0.8495 0 10
2.4229 3.0617 -0.9176 0.8573 0 10
2.3208 3.0712 -0.9047 0.7671 0 10
2.2245 3.0846 -0.8938 0.9515 0 10
2.1362 3.1062 -0.8860 0.8772 0 10
2.0630 3.1481 -0.8846 0.9039 0 10
1.9990 3.2043 -0.8876 0.5885 0 10
1.9480 3.2837 -0.8973 0.6081 0 10
1.9092 3.3886 -0.9141 0.5203 0 10
1.8671 3.4941 -0.9311 0.5108 0 10
1.8254 3.6078 -0.9503 0.4661 0 10
1.7829 3.7282 -0.9712 0.4512 0 10
1.7447 3.8681 -0.9973 0.3648 0 10
1.7135 4.0372 -1.0308 0.3332 0 10
1.6770 4.2102 -1.0651 0.3442 0 10
2.8351 7.6080 -1.9082 0.3103 0 8
2.7116 7.8051 -1.9419 0.3049 0 8
2.5826 8.0065 -1.9772 0.2995 0 8
2.4479 8.2123 -2.0140 0.2940 0 8
2.3071 8.4229 -2.0525 0.2885 0 8
2.1445 8.5766 -2.0778 0.9456 0 1
1.9423 8.5780 -2.0671 0.9505 0 1
1.7421 8.5793 -2.0575 0.9549 0 1
1.5437 8.5807 -2.0490 0.9588 0 1
1.3467 8.5820 -2.0416 0.9623 0 1
1.1511 8.5833 -2.0353 0.9653 0 1
0.9566 8.5846 -2.0301 0.9678 0 1
0.7630 8.5859 -2.0258 0.9698 0 1
0.5702 8.5872 -2.0226 0.9713 0 1
0.3778 8.5885 -2.0205 0.9724 0 1
0.1858 8.5898 -2.0193 0.9729 0 1
-0.0062 8.5911 -2.0191 0.9730 0 1
-0.1981 8.5924 -2.0200 0.9726 0 1
-0.3904 8.5937 -2.0218 0.9717 0 1
-0.5831 8.5951 -2.0247 0.9703 0 1
-0.7895 8.7415 -2.0628 0.1976 0 1
-0.9932 8.7979 -2.0809 0.9661 0 1
-1.1930 8.7993 -2.0870 0.9633 0 1
-1.4019 8.8508 -2.1061 0.9600 0 1
-1.6056 8.8521 -2.1144 0.9562 0 1
-1.8110 8.8536 -2.1239 0.9520 0 1
-2.0184 8.8550 -2.1345 0.9472 0 1
-2.2279 8.8564 -2.1463 0.9420 0 1
-2.3783 8.6342 -2.1048 0.3163 0 1
-2.5601 8.5438 -2.0962 0.9302 0 1
-2.7700 8.5453 -2.1112 0.9236 0 1
-3.0932 8.8624 -2.2061 0.9165 0 1
-3.3177 8.8640 -2.2244 0.9089 0 1
-3.5460 8.8656 -2.2441 0.9010 0 1
-3.7785 8.8672 -2.2653 0.8925 0 1
-4.0085 8.8530 -2.2840 0.4540 0 1
-4.6873 5.6420 -1.7239 0.3710 0 9
-4.7206 5.4305 -1.6911 0.8288 0 9
-4.8198 5.3007 -1.6838 0.9915 0 9
-4.9738 5.2305 -1.6964 0.6553 0 9
-2.5212 -8.7197 -2.1333 0.8994 0 9
-2.2500 -8.4879 -2.0638 0.9431 0 19
-2.1683 -8.9858 -2.1725 0.7964 0 9
-1.8673 -8.5738 -2.0623 0.3555 0 9
-1.6697 -8.5848 -2.0554 0.9730 0 9
-1.4698 -8.5748 -2.0447 0.7888 0 9
-1.2559 -8.4572 -2.0094 0.8537 0 9
-1.0651 -8.4703 -2.0064 0.2383 0 9
-0.8802 -8.5364 -2.0169 0.0727 0 9
-0.6789 -8.4249 -1.9865 0.1839 0 9
-0.4922 -8.4679 -1.9935 0.3535 0 9
-0.3018 -8.4440 -1.9858 0.7331 0 9
-0.1121 -8.3722 -1.9678 0.4918 0 9
0.0753 -8.4065 -1.9758 0.7243 0 9
0.2611 -8.3428 -1.9617 0.3636 0 9
0.4519 -8.4185 -1.9814 0.6622 0 9
0.6390 -8.3949 -1.9787 0.2344 0 9
0.8202 -8.3164 -1.9640 0.2990 0 9
1.0155 -8.3760 -1.9830 0.2764 0 9
1.2022 -8.3504 -1.9828 0.3807 0 9
1.3899 -8.3303 -1.9849 0.5487 0 9
1.6028 -8.4405 -2.0191 0.7946 0 9
1.7950 -8.4214 -2.0237 0.4147 0 9
1.9655 -8.3066 -2.0061 0.3568 0 9
2.2124 -8.4984 -2.0639 0.9247 0 9
2.3688 -8.3312 -2.0356 0.2909 0 8
2.5263 -8.1853 -2.0133 0.9674 0 8
2.7244 -8.1746 -2.0251 0.9617 0 8
2.9207 -8.1517 -2.0351 0.3227 0 8
3.0524 -7.9552 -2.0026 0.3280 0 8
3.1790 -7.7621 -1.9714 0.3332 0 8
3.2978 -7.5657 -1.9397 0.3233 0 7
3.4108 -7.3709 -1.9088 0.3285 0 7
3.5191 -7.1797 -1.8792 0.3337 0 7
3.6230 -6.9921 -1.8508 0.3388 0 7
3.7227 -6.8077 -1.8236 0.3438 0 7
3.8183 -6.6265 -1.7974 0.3488 0 7
3.9101 -6.4483 -1.7723 0.3538 0 7
3.9981 -6.2730 -1.7483 0.3586 0 7
4.0826 -6.1005 -1.7252 0.3634 0 7
4.1637 -5.9306 -1.7030 0.3682 0 7
4.2415 -5.7632 -1.6818 0.3728 0 7
4.3161 -5.5983 -1.6614 0.3774 0 7
4.3878 -5.4357 -1.6418 0.3819 0 7
4.4565 -5.2752 -1.6230 0.3863 0 6
4.5224 -5.1169 -1.6050 0.3907 0 7
4.5857 -4.9606 -1.5877 0.3949 0 7
4.6463 -4.8062 -1.5711 0.3991 0 7
4.7045 -4.6537 -1.5552 0.4032 0 7
4.7602 -4.5029 -1.5400 0.4072 0 7
4.8135 -4.3538 -1.5254 0.4110 0 7
4.8646 -4.2064 -1.5114 0.4148 0 7
4.9135 -4.0604 -1.4981 0.4185 0 7
4.9603 -3.9159 -1.4853 0.4221 0 7
5.0050 -3.7729 -1.4731 0.4256 0 7
5.0477 -3.6311 -1.4614 0.4290 0 7
5.0885 -3.4906 -1.4503 0.4323 0 7
5.1274 -3.3514 -1.4396 0.4355 0 7
5.1644 -3.2133 -1.4295 0.4386 0 7
5.1996 -3.0762 -1.4199 0.4416 0 7
5.2331 -2.9402 -1.4107 0.4445 0 7
5.2648 -2.8052 -1.4020 0.4472 0 7
5.2949 -2.6712 -1.3938 0.4498 0 7
5.3234 -2.5380 -1.3860 0.4524 0 7
5.3503 -2.4056 -1.3787 0.4548 0 7
5.3756 -2.2741 -1.3718 0.4571 0 7
5.3993 -2.1432 -1.3653 0.4593 0 7
5.4216 -2.0131 -1.3592 0.4613 0 7
5.4424 -1.8836 -1.3535 0.4632 0 6
5.4617 -1.7547 -1.3482 0.4651 0 7
5.4796 -1.6263 -1.3434 0.4667 0 6
5.4961 -1.4984 -1.3389 0.4683 0 7
5.5111 -1.3711 -1.3347 0.4698 0 7
5.5248 -1.2441 -1.3310 0.4711 0 7
5.5372 -1.1176 -1.3276 0.4723 0 7
4.0440 -0.7226 -0.9655 0.2936 24 10
3.9606 -0.6167 -0.9421 0.7360 24 10
3.8975 -0.5180 -0.9241 0.7503 24 10
3.8503 -0.4245 -0.9104 0.9051 24 10
3.8283 -0.3357 -0.9032 0.9421 24 10
3.8151 -0.2488 -0.8986 0.9469 24 10
3.8018 -0.1627 -0.8943 0.9504 24 10
3.7925 -0.0775 -0.8915 0.9462 24 10
3.7885 0.0072 -0.8904 0.9474 24 10
3.7934 0.0920 -0.8918 0.9459 24 10
3.8041 0.1773 -0.8950 0.9497 24 10
3.8174 0.2635 -0.8993 0.9461 24 10
3.8305 0.3505 -0.9040 0.9412 24 10
3.8551 0.4398 -0.9119 0.9036 24 10
3.9081 0.5345 -0.9270 0.7479 24 10
3.9716 0.6339 -0.9452 0.7335 24 10
4.1032 0.7493 -0.9803 0.1787 24 10
5.5352 1.1391 -1.3282 0.4721 0 7
5.5226 1.2657 -1.3316 0.4709 0 7
5.5087 1.3927 -1.3354 0.4695 0 7
5.4934 1.5201 -1.3396 0.4681 0 7
5.4767 1.6481 -1.3442 0.4665 0 7
5.4585 1.7765 -1.3491 0.4648 0 6
5.4390 1.9055 -1.3545 0.4629 0 7
5.4179 2.0352 -1.3602 0.4610 0 7
5.3954 2.1654 -1.3664 0.4589 0 7
5.3714 2.2964 -1.3729 0.4567 0 7
5.3458 2.4281 -1.3799 0.4544 0 7
5.3187 2.5606 -1.3873 0.4520 0 7
5.2899 2.6939 -1.3952 0.4494 0 7
5.2596 2.8281 -1.4035 0.4467 0 7
5.0350 2.8542 -1.3602 0.4854 0 10
4.7993 2.8641 -1.3135 0.8618 0 10
4.5536 2.8573 -1.2634 0.5226 0 10
4.3434 2.8626 -1.2226 0.6603 0 10
4.1450 2.8666 -1.1844 0.5063 0 10
3.9400 2.8570 -1.1438 0.5277 0 10
3.7547 2.8527 -1.1082 0.5936 0 10
3.5863 2.8534 -1.0771 0.6147 0 10
3.4332 2.8591 -1.0500 0.6868 0 10
3.2927 2.8691 -1.0264 0.6920 0 10
3.1572 2.8776 -1.0040 0.7153 0 10
3.0348 2.8927 -0.9853 0.7520 0 10
2.9410 2.9315 -0.9759 0.7405 0 10
2.8505 2.9711 -0.9677 0.7572 0 10
2.7569 3.0051 -0.9585 0.8252 0 10
2.6517 3.0233 -0.9451 0.8369 0 10
2.5494 3.0411 -0.9326 0.8466 0 10
2.4490 3.0575 -0.9207 0.8544 0 10
2.3498 3.0718 -0.9089 0.7636 0 10
2.2459 3.0761 -0.8951 0.9501 0 10
2.1584 3.0993 -0.8876 0.9078 0 10
2.0813 3.1358 -0.8845 0.8909 0 10
2.0136 3.1859 -0.8858 0.8187 0 10
1.9616 3.2629 -0.8948 0.5838 0 10
1.9200 3.3614 -0.9098 0.5227 0 10
-2.8606 -8.6244 -2.3527 0.9193 0 9
-2.6307 -8.5674 -2.3205 0.7228 0 9
-2.3635 -8.3580 -2.2489 0.3861 0 9
-2.1417 -8.2754 -2.2132 0.2434 0 9
-2.0350 -8.6560 -2.3023 0.7767 0 9
-1.7968 -8.4895 -2.2468 0.4264 0 9
-1.5680 -8.3223 -2.1927 0.4389 0 9
-1.3839 -8.3682 -2.1961 0.4528 0 9
-1.1857 -8.3205 -2.1761 0.7422 0 9
-1.0015 -8.3609 -2.1803 0.6908 0 9
-0.8110 -8.3460 -2.1711 0.4581 0 9
-0.6286 -8.4175 -2.1855 0.4011 0 9
-0.4365 -8.3556 -2.1664 0.2027 0 9
-0.2543 -8.5158 -2.2059 0.7420 0 9
-0.0642 -8.5363 -2.2103 0.8442 0 9
0.1248 -8.4215 -2.1807 0.7015 0 9
0.3100 -8.3367 -2.1600 0.3583 0 9
0.4907 -8.2366 -2.1364 0.1206 0 9
0.6790 -8.2785 -2.1506 0.2016 0 9
0.8703 -8.3236 -2.1669 0.4019 0 9
1.0770 -8.4671 -2.2100 0.7863 0 9
1.2519 -8.3478 -2.1855 0.4090 0 9
1.4544 -8.4124 -2.2104 0.7501 0 9
1.6567 -8.4530 -2.2303 0.2909 0 8
1.8104 -8.2554 -2.1883 0.2965 0 8
1.9860 -8.1788 -2.1792 0.9791 0 8
2.1779 -8.1687 -2.1889 0.9748 0 8
2.3598 -8.1181 -2.1889 0.3287 0 8
2.4999 -7.9342 -2.1539 0.3341 0 8
2.6347 -7.7534 -2.1202 0.3394 0 8
2.7621 -7.5688 -2.0861 0.3293 0 7
2.8838 -7.3856 -2.0529 0.3346 0 7
3.0006 -7.2055 -2.0209 0.3399 0 7
3.1128 -7.0283 -1.9903 0.3451 0 7
3.2206 -6.8540 -1.9608 0.3503 0 7
3.3242 -6.6825 -1.9325 0.3555 0 7
3.4238 -6.5136 -1.9053 0.3605 0 7
3.5194 -6.3471 -1.8791 0.3656 0 7
3.6114 -6.1831 -1.8540 0.3705 0 7
3.6998 -6.0214 -1.8298 0.3754 0 7
3.7847 -5.8619 -1.8066 0.3802 0 7
3.8663 -5.7046 -1.7843 0.3850 0 7
3.9448 -5.5493 -1.7629 0.3897 0 7
4.0202 -5.3959 -1.7422 0.3943 0 7
4.0927 -5.2445 -1.7224 0.3988 0 6
4.1623 -5.0948 -1.7034 0.4033 0 7
4.2292 -4.9469 -1.6851 0.4076 0 7
4.2934 -4.8007 -1.6676 0.4119 0 7
4.3551 -4.6560 -1.6507 0.4161 0 7
4.4143 -4.5129 -1.6345 0.4203 0 7
4.4711 -4.3712 -1.6190 0.4243 0 7
4.5256 -4.2310 -1.6041 0.4282 0 7
4.5779 -4.0921 -1.5898 0.4321 0 7
4.6280 -3.9544 -1.5761 0.4358 0 7
4.6759 -3.8181 -1.5630 0.4395 0 7
4.7218 -3.6829 -1.5505 0.4430 0 7
4.7657 -3.5488 -1.5385 0.4465 0 7
4.8077 -3.4158 -1.5270 0.4499 0 7
4.8478 -3.2838 -1.5160 0.4531 0 7
4.8860 -3.1528 -1.5056 0.4562 0 7
4.9225 -3.0228 -1.4956 0.4593 0 7
4.9571 -2.8936 -1.4862 0.4622 0 7
4.9901 -2.7653 -1.4771 0.4650 0 7
5.0214 -2.6378 -1.4686 0.4677 0 7
5.0510 -2.5110 -1.4605 0.4703 0 7
5.0791 -2.3850 -1.4528 0.4728 0 7
5.1055 -2.2596 -1.4456 0.4752 0 7
5.1304 -2.1349 -1.4388 0.4774 0 7
5.1538 -2.0108 -1.4324 0.4796 0 7
5.1757 -1.8873 -1.4264 0.4816 0 6
5.1962 -1.7643 -1.4208 0.4835 0 7
5.2152 -1.6417 -1.4156 0.4852 0 6
5.2327 -1.5196 -1.4108 0.4869 0 7
5.2489 -1.3980 -1.4064 0.4884 0 7
5.2637 -1.2767 -1.4024 0.4898 0 7
5.2771 -1.1558 -1.3987 0.4911 0 7
4.5355 -0.8877 -1.1966 0.9300 24 10
4.0219 -0.6943 -1.0567 0.6327 24 10
3.9436 -0.5904 -1.0324 0.6476 24 10
3.8741 -0.4918 -1.0111 0.7512 24 10
3.8398 -0.4005 -0.9996 0.9326 24 10
3.8265 -0.3129 -0.9941 0.9377 24 10
3.8134 -0.2262 -0.9891 0.9415 24 10
3.8046 -0.1405 -0.9857 0.9375 24 10
3.7996 -0.0554 -0.9839 0.9393 24 10
3.7981 0.0295 -0.9834 0.9397 24 10
3.8030 0.1146 -0.9851 0.9381 24 10
3.8093 0.2000 -0.9877 0.9428 24 10
3.8225 0.2864 -0.9925 0.9392 24 10
3.8357 0.3737 -0.9978 0.9342 24 10
3.8556 0.4628 -1.0055 0.7555 24 10
3.9205 0.5597 -1.0254 0.6520 24 10
3.9976 0.6622 -1.0492 0.6373 24 10
4.2370 0.7994 -1.1164 0.1925 24 10
5.2809 1.1191 -1.3977 0.4915 0 7
5.2679 1.2399 -1.4012 0.4902 0 7
5.2535 1.3611 -1.4051 0.4889 0 7
5.2378 1.4826 -1.4094 0.4874 0 7
5.2207 1.6045 -1.4141 0.4858 0 7
5.2021 1.7269 -1.4192 0.4840 0 6
5.1821 1.8498 -1.4247 0.4822 0 7
5.1607 1.9732 -1.4305 0.4802 0 7
5.1377 2.0971 -1.4368 0.4781 0 7
5.1133 2.2216 -1.4435 0.4759 0 7
5.0873 2.3468 -1.4506 0.4736 0 7
5.0597 2.4726 -1.4581 0.4711 0 7
5.0306 2.5991 -1.4661 0.4685 0 7
4.9998 2.7264 -1.4745 0.4659 0 7
4.9673 2.8545 -1.4834 0.4631 0 7
4.7582 2.8776 -1.4398 0.0789 0 10
4.5506 2.8927 -1.3961 0.5182 0 10
4.2859 2.8609 -1.3342 0.5517 0 10
4.0888 2.8634 -1.2924 0.6497 0 10
3.9034 2.8656 -1.2538 0.5251 0 10
3.7144 2.8567 -1.2133 0.5458 0 10
3.5420 2.8523 -1.1775 0.6096 0 10
3.3863 2.8539 -1.1466 0.6377 0 10
3.2406 2.8573 -1.1186 0.7015 0 10
3.1085 2.8668 -1.0949 0.7197 0 10
2.9840 2.8779 -1.0734 0.7462 0 10
2.8649 2.8894 -1.0535 0.7635 0 10
2.7663 2.9174 -1.0410 0.7917 0 10
2.6778 2.9535 -1.0322 0.7945 0 10
2.5908 2.9891 -1.0242 0.8461 0 10
2.4996 3.0176 -1.0145 0.8541 0 10
2.4012 3.0343 -1.0019 0.8610 0 10
2.2982 3.0413 -0.9870 0.7628 0 10
2.2030 3.0548 -0.9752 0.9554 0 10
2.1167 3.0778 -0.9672 0.9127 0 10
2.0297 3.0974 -0.9588 0.9047 0 10
1.9561 3.1356 -0.9569 0.9350 0 10
1.8886 3.1837 -0.9584 0.8892 0 10
1.8372 3.2608 -0.9691 0.6285 0 10
1.7968 3.3627 -0.9872 0.5193 0 10
1.7546 3.4679 -1.0063 0.5094 0 10
1.7107 3.5772 -1.0267 0.4922 0 10
1.6650 3.6915 -1.0485 0.4820 0 10
1.6213 3.8199 -1.0744 0.3585 0 10
1.5874 3.9854 -1.1107 0.3404 0 10
1.5496 4.1584 -1.1490 0.3376 0 10
1.5151 4.3612 -1.1954 0.2337 0 10
2.4026 7.4484 -2.0264 0.3201 0 8
2.2743 7.6300 -2.0614 0.3147 0 8
2.1406 7.8151 -2.0980 0.3092 0 8
2.0012 8.0037 -2.1361 0.3037 0 8
1.8558 8.1961 -2.1758 0.2982 0 8
1.7042 8.3924 -2.2173 0.2926 0 8
1.5437 8.5810 -2.2575 0.9535 0 1
1.3468 8.5824 -2.2493 0.9569 0 1
1.1512 8.5837 -2.2424 0.9599 0 1
0.9567 8.5850 -2.2366 0.9624 0 1
0.7631 8.5863 -2.2319 0.9644 0 1
0.5702 8.5876 -2.2284 0.9659 0 1
0.3778 8.5889 -2.2260 0.9669 0 1
0.1858 8.5902 -2.2247 0.9675 0 1
-0.0062 8.5915 -2.2245 0.9676 0 1
-0.1982 8.5928 -2.2254 0.9672 0 1
-0.3904 8.5941 -2.2275 0.9663 0 1
-0.5831 8.5954 -2.2306 0.9649 0 1
-0.7187 7.9569 -2.0686 0.6174 0 20
-0.8907 7.8901 -2.0559 0.4499 0 20
-1.0779 7.9507 -2.0774 0.2075 0 20
-1.3623 8.6008 -2.2547 0.9546 0 1
-1.5687 8.6485 -2.2758 0.1962 0 1
-1.8009 8.8039 -2.3267 0.9466 0 1
-2.0132 8.8321 -2.3454 0.1851 0 1
-2.2281 8.8569 -2.3646 0.9367 0 1
-2.3531 8.5428 -2.2943 0.9311 0 1
-2.5602 8.5442 -2.3094 0.9250 0 1
-2.7701 8.5457 -2.3260 0.9184 0 1
-3.0933 8.8628 -2.4305 0.9114 0 1
-3.3178 8.8644 -2.4506 0.9039 0 1
-3.5462 8.8660 -2.4724 0.8959 0 1
-3.7787 8.8676 -2.4957 0.8875 0 1
-4.6593 5.6083 -1.8879 0.3711 0 9
-4.6941 5.4001 -1.8526 0.7480 0 9
-4.8076 5.2874 -1.8503 0.9885 0 9
-4.9901 5.2476 -1.8750 0.6496 0 9
-3.6126 -8.7104 -2.4415 0.8983 0 9
-2.9165 -8.6231 -2.3569 0.5202 0 9
-2.6885 -8.5758 -2.3270 0.7207 0 9
-2.4619 -8.5148 -2.2949 0.5539 0 9
-2.2486 -8.4828 -2.2722 0.7039 0 9
-2.0721 -8.5868 -2.2871 0.5896 0 9
-1.8302 -8.4035 -2.2268 0.1238 0 9
-1.6303 -8.3818 -2.2109 0.5490 0 9
-1.4351 -8.3724 -2.1994 0.4522 0 9
-1.2322 -8.2979 -2.1720 0.7436 0 9
-1.0397 -8.2683 -2.1577 0.1875 0 9
-0.8596 -8.3370 -2.1700 0.1714 0 9
-0.6726 -8.3470 -2.1682 0.3412 0 9
-0.4843 -8.3313 -2.1608 0.2058 0 9
-0.3023 -8.4576 -2.1912 0.5506 0 9
-0.1120 -8.3672 -2.1666 0.2391 0 9
0.0755 -8.4305 -2.1829 0.7294 0 9
0.2642 -8.4401 -2.1864 0.7090 0 9
0.4461 -8.3097 -2.1546 0.3623 0 9
0.6387 -8.3909 -2.1788 0.3776 0 9
0.8165 -8.2784 -2.1538 0.4044 0 9
1.0098 -8.3295 -2.1725 0.4215 0 9
1.2240 -8.5019 -2.2240 0.8556 0 9
1.4090 -8.4448 -2.2167 0.7494 0 9
1.6152 -8.5056 -2.2416 0.2894 0 8
1.7707 -8.3069 -2.1991 0.2950 0 8
1.9359 -8.1814 -2.1768 0.9802 0 8
2.1273 -8.1714 -2.1862 0.9760 0 8
2.3205 -8.1611 -2.1968 0.9713 0 8
2.4636 -7.9823 -2.1630 0.3327 0 8
2.5998 -7.8006 -2.1289 0.3380 0 8
2.7293 -7.6175 -2.0951 0.3279 0 7
2.8522 -7.4335 -2.0615 0.3332 0 7
2.9703 -7.2526 -2.0292 0.3385 0 7
3.0837 -7.0746 -1.9982 0.3438 0 7
3.1927 -6.8996 -1.9684 0.3490 0 7
3.2974 -6.7273 -1.9398 0.3541 0 7
3.3980 -6.5577 -1.9123 0.3592 0 7
3.4947 -6.3906 -1.8859 0.3642 0 7
3.5876 -6.2260 -1.8605 0.3692 0 7
3.6769 -6.0637 -1.8361 0.3741 0 7
3.7627 -5.9036 -1.8126 0.3790 0 7
3.8452 -5.7458 -1.7901 0.3837 0 7
3.9245 -5.5899 -1.7684 0.3884 0 7
4.0007 -5.4361 -1.7476 0.3931 0 7
4.0739 -5.2841 -1.7276 0.3976 0 7
4.1443 -5.1340 -1.7083 0.4021 0 7
4.2119 -4.9856 -1.6899 0.4065 0 7
4.2768 -4.8390 -1.6721 0.4108 0 7
4.3391 -4.6939 -1.6551 0.4150 0 7
4.3990 -4.5504 -1.6387 0.4192 0 7
4.4564 -4.4083 -1.6230 0.4232 0 7
4.5115 -4.2677 -1.6080 0.4272 0 7
4.5644 -4.1285 -1.5935 0.4311 0 7
4.6150 -3.9905 -1.5797 0.4349 0 7
4.6635 -3.8538 -1.5664 0.4385 0 7
4.7100 -3.7183 -1.5537 0.4421 0 7
4.7544 -3.5839 -1.5416 0.4456 0 7
4.7969 -3.4506 -1.5300 0.4490 0 7
4.8374 -3.3184 -1.5189 0.4523 0 7
4.8761 -3.1872 -1.5083 0.4554 0 7
4.9130 -3.0569 -1.4982 0.4585 0 7
4.9482 -2.9275 -1.4886 0.4615 0 7
4.9816 -2.7990 -1.4795 0.4643 0 7
5.0133 -2.6712 -1.4708 0.4670 0 7
5.0434 -2.5443 -1.4626 0.4697 0 7
5.0718 -2.4181 -1.4548 0.4722 0 7
5.0987 -2.2925 -1.4475 0.4746 0 7
5.1240 -2.1676 -1.4405 0.4769 0 7
5.1478 -2.0434 -1.4340 0.4790 0 7
5.1701 -1.9197 -1.4279 0.4811 0 7
5.1909 -1.7965 -1.4222 0.4830 0 6
5.2103 -1.6739 -1.4170 0.4848 0 7
5.2282 -1.5517 -1.4121 0.4865 0 6
5.2448 -1.4299 -1.4075 0.4880 0 7
5.2599 -1.3086 -1.4034 0.4895 0 7
5.2737 -1.1876 -1.3996 0.4908 0 7
5.2861 -1.0669 -1.3963 0.4920 0 7
4.0537 -0.7243 -1.0662 0.2016 24 10
3.9638 -0.6172 -1.0387 0.6437 24 10
3.8903 -0.5171 -1.0161 0.7475 24 10
3.8433 -0.4237 -1.0011 0.9311 24 10
3.8300 -0.3358 -0.9955 0.9364 24 10
3.8168 -0.2489 -0.9903 0.9412 24 10
3.8059 -0.1629 -0.9863 0.9370 24 10
3.8009 -0.0777 -0.9843 0.9389 24 10
3.7969 0.0072 -0.9831 0.9400 24 10
3.8018 0.0922 -0.9846 0.9386 24 10
3.8067 0.1774 -0.9867 0.9366 24 10
3.8191 0.2636 -0.9912 0.9405 24 10
3.8322 0.3507 -0.9964 0.9356 24 10
3.8463 0.4388 -1.0023 0.9006 24 10
3.9008 0.5336 -1.0194 0.6559 24 10
3.9770 0.6348 -1.0428 0.6412 24 10
4.1236 0.7530 -1.0853 0.1980 24 10
5.2840 1.0874 -1.3968 0.4918 0 7
5.2714 1.2081 -1.4003 0.4906 0 7
5.2574 1.3292 -1.4041 0.4892 0 7
5.2421 1.4506 -1.4083 0.4878 0 7
5.2253 1.5724 -1.4129 0.4862 0 7
5.2071 1.6947 -1.4178 0.4845 0 7
5.1875 1.8174 -1.4232 0.4827 0 6
5.1664 1.9407 -1.4289 0.4807 0 7
5.1439 2.0645 -1.4351 0.4787 0 7
5.1198 2.1888 -1.4417 0.4765 0 7
5.0943 2.3138 -1.4487 0.4742 0 7
5.0671 2.4395 -1.4561 0.4718 0 7
5.0384 2.5658 -1.4639 0.4692 0 7
5.0080 2.6929 -1.4722 0.4666 0 7
4.9760 2.8207 -1.4810 0.4638 0 7
4.7858 2.8560 -1.4430 0.5013 0 10
4.5710 2.8682 -1.3972 0.6767 0 10
4.3366 2.8580 -1.3447 0.5014 0 10
4.1323 2.8578 -1.3009 0.6569 0 10
3.9554 2.8682 -1.2650 0.5204 0 10
3.7629 2.8590 -1.2236 0.5391 0 10
3.5848 2.8522 -1.1861 0.6052 0 10
3.4261 2.8532 -1.1544 0.6334 0 10
3.2772 2.8556 -1.1255 0.6521 0 10
3.1426 2.8642 -1.1009 0.7158 0 10
3.0162 2.8749 -1.0789 0.7425 0 10
2.8958 2.8863 -1.0586 0.7599 0 10
2.7895 2.9075 -1.0433 0.7899 0 10
2.7008 2.9439 -1.0344 0.7929 0 10
2.6143 2.9807 -1.0265 0.7820 0 10
2.5258 3.0130 -1.0180 0.8512 0 10
2.4270 3.0300 -1.0052 0.8582 0 10
2.3272 3.0423 -0.9917 0.7592 0 10
2.2242 3.0464 -0.9766 0.9540 0 10
2.1400 3.0729 -0.9696 0.9105 0 10
2.0502 3.0889 -0.9599 0.9223 0 10
1.9758 3.1261 -0.9575 0.9149 0 10
1.9069 3.1720 -0.9583 0.8894 0 10
1.8504 3.2397 -0.9660 0.6305 0 10
-3.9490 -8.5664 -2.6704 0.5278 0 9
-3.6385 -8.3803 -2.5863 0.4503 0 9
-3.4573 -8.4764 -2.5915 0.4623 0 9
-3.2480 -8.5014 -2.5763 0.6219 0 9
-2.9985 -8.4068 -2.5268 0.4929 0 9
-2.8130 -8.4811 -2.5296 0.5182 0 9
-2.5360 -8.2589 -2.4458 0.7460 0 9
-2.3593 -8.3431 -2.4545 0.3054 0 9
-2.1589 -8.3420 -2.4394 0.3847 0 9
-1.9463 -8.2787 -2.4075 0.3635 0 9
-1.7765 -8.3936 -2.4288 0.3790 0 9
-1.5684 -8.3244 -2.3981 0.7687 0 9
-1.3961 -8.4420 -2.4223 0.7610 0 9
-1.2047 -8.4536 -2.4173 0.6825 0 9
-0.9986 -8.3366 -2.3769 0.6856 0 9
-0.8260 -8.5001 -2.4177 0.8918 0 9
-0.6320 -8.4636 -2.4027 0.5608 0 9
-0.4421 -8.4636 -2.3992 0.1094 0 9
-0.2498 -8.3657 -2.3693 0.1396 0 9
-0.0625 -8.3202 -2.3554 0.4710 0 9
0.1248 -8.4182 -2.3834 0.7168 0 9
0.3091 -8.3141 -2.3553 0.1224 0 9
0.4987 -8.3721 -2.3743 0.1820 0 9
0.6998 -8.5318 -2.4234 0.6230 0 9
0.8785 -8.4024 -2.3916 0.7308 0 9
1.0660 -8.3810 -2.3917 0.2948 0 8
1.2296 -8.1989 -2.3470 0.3004 0 8
1.4131 -8.1731 -2.3481 0.9875 0 8
1.6000 -8.1638 -2.3551 0.9845 0 8
1.7770 -8.1031 -2.3484 0.3330 0 8
1.9261 -7.9319 -2.3107 0.3384 0 8
2.0697 -7.7630 -2.2744 0.3438 0 8
2.2067 -7.5911 -2.2379 0.3336 0 7
2.3377 -7.4193 -2.2021 0.3390 0 7
2.4637 -7.2500 -2.1677 0.3444 0 7
2.5849 -7.0832 -2.1346 0.3497 0 7
2.7015 -6.9188 -2.1027 0.3550 0 7
2.8137 -6.7567 -2.0720 0.3603 0 7
2.9217 -6.5969 -2.0425 0.3655 0 7
3.0257 -6.4391 -2.0141 0.3706 0 7
3.1257 -6.2834 -1.9867 0.3757 0 7
3.2220 -6.1297 -1.9604 0.3808 0 7
3.3147 -5.9780 -1.9351 0.3858 0 7
3.4040 -5.8280 -1.9107 0.3907 0 7
3.4899 -5.6799 -1.8872 0.3956 0 7
3.5726 -5.5334 -1.8646 0.4004 0 7
3.6522 -5.3886 -1.8428 0.4051 0 7
3.7288 -5.2454 -1.8219 0.4097 0 6
3.8025 -5.1037 -1.8017 0.4143 0 7
3.8734 -4.9635 -1.7824 0.4188 0 7
3.9416 -4.8247 -1.7637 0.4233 0 7
4.0073 -4.6873 -1.7458 0.4276 0 7
4.0704 -4.5513 -1.7285 0.4319 0 7
4.1310 -4.4164 -1.7120 0.4360 0 7
4.1893 -4.2828 -1.6960 0.4401 0 7
4.2453 -4.1504 -1.6807 0.4441 0 7
4.2990 -4.0191 -1.6660 0.4481 0 7
4.3506 -3.8889 -1.6519 0.4519 0 7
4.4001 -3.7597 -1.6384 0.4556 0 7
4.4475 -3.6315 -1.6255 0.4593 0 7
4.4929 -3.5043 -1.6130 0.4628 0 7
4.5364 -3.3780 -1.6012 0.4662 0 7
4.5780 -3.2526 -1.5898 0.4696 0 7
4.6177 -3.1280 -1.5789 0.4728 0 7
4.6557 -3.0042 -1.5686 0.4759 0 7
4.6918 -2.8812 -1.5587 0.4789 0 7
4.7263 -2.7589 -1.5493 0.4818 0 7
4.7591 -2.6373 -1.5403 0.4846 0 7
4.7902 -2.5163 -1.5318 0.4873 0 7
4.8197 -2.3960 -1.5237 0.4899 0 7
4.8476 -2.2763 -1.5161 0.4924 0 7
4.8740 -2.1572 -1.5089 0.4947 0 7
4.8988 -2.0385 -1.5021 0.4970 0 7
4.9221 -1.9204 -1.4957 0.4991 0 7
4.9440 -1.8028 -1.4897 0.5011 0 6
4.9644 -1.6855 -1.4842 0.5030 0 7
4.9833 -1.5687 -1.4790 0.5047 0 6
5.0009 -1.4523 -1.4742 0.5064 0 7
5.0170 -1.3362 -1.4698 0.5079 0 7
5.0318 -1.2205 -1.4658 0.5093 0 7
5.0451 -1.1050 -1.4621 0.5106 0 7
5.0572 -0.9898 -1.4588 0.5117 0 7
4.0473 -0.6987 -1.1627 0.6249 24 10
3.9679 -0.5940 -1.1358 0.6397 24 10
3.8880 -0.4935 -1.1095 0.6513 24 10
3.8490 -0.4015 -1.0955 0.8839 24 10
3.8345 -0.3135 -1.0891 0.8891 24 10
3.8197 -0.2266 -1.0832 0.9132 24 10
3.8145 -0.1408 -1.0806 0.9154 24 10
3.8094 -0.0555 -1.0785 0.9172 24 10
3.8078 0.0296 -1.0780 0.9176 24 10
3.8129 0.1148 -1.0799 0.9160 24 10
3.8181 0.2004 -1.0824 0.9139 24 10
3.8301 0.2870 -1.0873 0.8906 24 10
3.8446 0.3746 -1.0935 0.8855 24 10
3.8641 0.4638 -1.1018 0.6559 24 10
3.9438 0.5630 -1.1278 0.6408 24 10
4.0227 0.6663 -1.1543 0.6294 24 10
4.2776 0.8071 -1.2323 0.2054 24 10
5.0489 1.0699 -1.4611 0.5109 0 7
5.0360 1.1853 -1.4646 0.5097 0 7
5.0216 1.3010 -1.4685 0.5083 0 7
5.0059 1.4170 -1.4728 0.5068 0 7
4.9888 1.5333 -1.4775 0.5052 0 7
4.9703 1.6500 -1.4826 0.5035 0 7
4.9503 1.7671 -1.4880 0.5017 0 6
4.9289 1.8846 -1.4939 0.4997 0 7
4.9061 2.0025 -1.5001 0.4976 0 7
4.8817 2.1210 -1.5068 0.4954 0 7
4.8558 2.2400 -1.5139 0.4931 0 7
4.8283 2.3595 -1.5214 0.4907 0 7
4.7993 2.4797 -1.5293 0.4881 0 7
4.7687 2.6004 -1.5377 0.4855 0 7
4.7364 2.7218 -1.5465 0.4827 0 7
4.7025 2.8439 -1.5558 0.4798 0 7
4.6669 2.9667 -1.5655 0.4768 0 7
4.6294 3.0902 -1.5757 0.4737 0 7
4.0793 2.8567 -1.4098 0.5534 0 10
3.8919 2.8571 -1.3668 0.5711 0 10
3.7281 2.8673 -1.3315 0.5384 0 10
3.5500 2.8587 -1.2903 0.5583 0 10
3.3833 2.8514 -1.2526 0.6285 0 10
3.2359 2.8531 -1.2213 0.6483 0 10
3.0976 2.8567 -1.1929 0.6829 0 10
2.9707 2.8651 -1.1684 0.7420 0 10
2.8515 2.8758 -1.1465 0.7562 0 10
2.7381 2.8877 -1.1266 0.7844 0 10
2.6286 2.8992 -1.1079 0.7890 0 10
2.5388 2.9292 -1.0973 0.8240 0 10
2.4544 2.9630 -1.0892 0.8183 0 10
2.3712 2.9963 -1.0817 0.8700 0 10
2.2820 3.0198 -1.0715 0.8392 0 10
2.1886 3.0348 -1.0592 0.8869 0 10
2.0987 3.0516 -1.0485 0.9150 0 10
2.0084 3.0648 -1.0373 0.9069 0 10
1.9294 3.0928 -1.0320 0.9560 0 10
1.8565 3.1296 -1.0301 0.9577 0 10
1.7883 3.1741 -1.0314 0.9276 0 10
1.7308 3.2391 -1.0397 0.6527 0 10
1.6865 3.3333 -1.0575 0.4995 0 10
1.6447 3.4393 -1.0792 0.4984 0 10
1.6010 3.5494 -1.1023 0.5072 0 10
1.5532 3.6594 -1.1254 0.4968 0 10
1.5031 3.7736 -1.1499 0.4776 0 10
1.4668 3.9360 -1.1891 0.3531 0 10
1.4221 4.0935 -1.2268 0.3346 0 10
1.3704 4.2483 -1.2637 0.2511 0 10
2.1221 7.1193 -2.1031 0.3352 0 8
1.9950 7.2833 -2.1378 0.3298 0 8
1.8628 7.4499 -2.1739 0.3243 0 8
1.7252 7.6192 -2.2115 0.3188 0 8
1.5821 7.7912 -2.2507 0.3132 0 8
1.4331 7.9662 -2.2914 0.3077 0 8
1.2780 8.1441 -2.3338 0.3021 0 8
1.1165 8.3252 -2.3779 0.2965 0 8
0.9483 8.5095 -2.4239 0.2908 0 8
0.7631 8.5867 -2.4404 0.9585 0 1
0.5702 8.5880 -2.4366 0.9600 0 1
0.3778 8.5893 -2.4339 0.9610 0 1
