ply
format ascii 1.0
element vertex 1410
property float32 x
property float32 y
property float32 z
property float32 CosAngle
property uint32 ObjIdx
property uint32 ObjTag
end_header
2.4845 -8.4975 -1.0516 0.3446 0 9
2.6555 -8.3819 -1.0444 0.8753 0 9
2.8767 -8.4217 -1.0571 0.3349 0 9
3.0379 -8.2837 -1.0481 0.3244 0 9
3.2916 -8.3906 -1.0706 0.5559 0 9
3.4968 -8.3590 -1.0763 0.3859 0 9
3.7302 -8.3856 -1.0902 0.8825 0 9
3.9760 -8.4260 -1.1067 0.7528 0 9
4.2262 -8.4609 -1.1234 0.9402 0 9
4.4278 -8.3901 -1.1269 0.7874 0 9
4.6620 -8.3749 -1.1386 0.6064 0 9
4.9512 -8.4446 -1.1628 0.5564 0 9
5.5804 -8.2035 -1.1785 0.8520 0 8
6.0951 -7.7827 -1.1742 0.2884 0 8
6.1671 -7.5220 -1.1554 0.2798 0 7
6.2338 -7.2659 -1.1372 0.2843 0 7
6.2972 -7.0163 -1.1199 0.2887 0 7
6.3575 -6.7726 -1.1034 0.2930 0 7
6.4148 -6.5347 -1.0877 0.2972 0 7
6.4693 -6.3022 -1.0728 0.3013 0 7
6.5212 -6.0747 -1.0586 0.3054 0 7
6.5706 -5.8519 -1.0452 0.3093 0 7
6.6175 -5.6336 -1.0323 0.3131 0 7
6.6621 -5.4196 -1.0201 0.3169 0 7
6.7045 -5.2094 -1.0086 0.3205 0 6
6.7448 -5.0031 -0.9975 0.3241 0 7
6.7830 -4.8002 -0.9871 0.3275 0 7
6.8194 -4.6007 -0.9772 0.3308 0 7
6.8538 -4.4043 -0.9677 0.3340 0 7
6.8864 -4.2109 -0.9588 0.3371 0 7
6.9173 -4.0202 -0.9504 0.3401 0 7
6.9466 -3.8322 -0.9424 0.3430 0 7
6.9742 -3.6465 -0.9348 0.3458 0 7
7.0002 -3.4632 -0.9277 0.3485 0 7
7.0247 -3.2820 -0.9210 0.3510 0 7
7.0478 -3.1028 -0.9147 0.3534 0 7
7.0694 -2.9255 -0.9088 0.3557 0 7
7.0896 -2.7500 -0.9033 0.3579 0 7
7.1085 -2.5761 -0.8981 0.3599 0 7
7.1260 -2.4037 -0.8933 0.3619 0 7
7.1423 -2.2327 -0.8889 0.3637 0 7
7.1573 -2.0630 -0.8848 0.3654 0 7
7.1710 -1.8944 -0.8810 0.3669 0 6
7.1835 -1.7270 -0.8776 0.3683 0 7
7.1949 -1.5605 -0.8745 0.3696 0 6
7.2050 -1.3949 -0.8717 0.3708 0 7
4.8047 -0.8192 -0.5790 0.0253 24 10
4.4665 -0.6592 -0.5363 0.3515 24 10
4.3240 -0.5398 -0.5176 0.4652 24 10
4.2737 -0.4367 -0.5103 0.5343 24 10
4.2433 -0.3380 -0.5056 0.5392 24 10
4.2169 -0.2412 -0.5017 0.5604 24 10
4.2074 -0.1464 -0.5001 0.5623 24 10
4.1975 -0.0522 -0.4986 0.5639 24 10
4.1964 0.0416 -0.4985 0.5641 24 10
4.2063 0.1358 -0.4999 0.5625 24 10
4.2158 0.2305 -0.5015 0.5607 24 10
4.2399 0.3269 -0.5051 0.5398 24 10
4.2702 0.4255 -0.5098 0.5349 24 10
4.3143 0.5275 -0.5163 0.4664 24 10
4.4494 0.6452 -0.5341 0.3530 24 10
4.7277 0.7938 -0.5694 0.2109 24 10
7.2061 1.3762 -0.8715 0.3710 0 7
7.1961 1.5417 -0.8742 0.3698 0 7
7.1849 1.7081 -0.8772 0.3685 0 6
7.1725 1.8755 -0.8806 0.3671 0 7
7.1589 2.0439 -0.8844 0.3655 0 7
7.1440 2.2135 -0.8884 0.3639 0 7
7.1279 2.3843 -0.8928 0.3621 0 7
7.1105 2.5565 -0.8976 0.3602 0 7
7.0918 2.7303 -0.9027 0.3581 0 7
7.0718 2.9056 -0.9082 0.3560 0 7
7.0503 3.0827 -0.9140 0.3537 0 7
7.0274 3.2617 -0.9203 0.3513 0 7
7.0031 3.4426 -0.9269 0.3487 0 7
6.9772 3.6257 -0.9340 0.3461 0 7
6.9498 3.8111 -0.9415 0.3433 0 7
4.9768 2.8756 -0.6828 0.4432 0 10
4.7522 2.8894 -0.6607 0.5513 0 10
4.5695 2.9201 -0.6442 0.4946 0 10
4.4151 2.9625 -0.6316 0.5277 0 10
4.2564 2.9961 -0.6183 0.6161 0 10
4.1029 3.0274 -0.6057 0.3410 0 10
3.9243 3.0333 -0.5892 0.3758 0 10
3.7616 3.0442 -0.5748 0.6202 0 10
3.6275 3.0724 -0.5647 0.7096 0 10
3.4878 3.0906 -0.5536 0.7204 0 10
3.3433 3.0986 -0.5415 0.7007 0 10
3.2214 3.1223 -0.5329 0.6277 0 10
3.1070 3.1492 -0.5255 0.6672 0 10
3.0242 3.2054 -0.5235 0.3682 0 10
2.9634 3.2851 -0.5255 0.3365 0 10
2.9069 3.3709 -0.5287 0.3620 0 10
2.8524 3.4612 -0.5328 0.3674 0 10
2.8029 3.5604 -0.5383 0.2931 0 10
2.7703 3.6855 -0.5477 0.2881 0 10
2.7366 3.8153 -0.5577 0.2771 0 10
2.7023 3.9510 -0.5686 0.2718 0 10
2.6970 4.1389 -0.5868 0.1717 0 10
4.9923 8.4657 -1.1674 0.8585 0 1
4.7415 8.4673 -1.1528 0.8695 0 1
4.4969 8.4690 -1.1390 0.8800 0 1
4.2578 8.4706 -1.1262 0.8900 0 1
4.0240 8.4721 -1.1141 0.8996 0 1
3.7951 8.4737 -1.1029 0.9088 0 1
3.5705 8.4752 -1.0924 0.9175 0 1
3.3501 8.4767 -1.0827 0.9257 0 1
3.1335 8.4781 -1.0737 0.9335 0 1
2.9204 8.4796 -1.0653 0.9408 0 1
2.7104 8.4810 -1.0576 0.9477 0 1
2.5034 8.4824 -1.0505 0.9541 0 1
2.2990 8.4837 -1.0441 0.9600 0 1
2.1032 8.5102 -1.0413 0.9654 0 1
1.9619 8.7760 -1.0682 0.9703 0 1
1.7612 8.7974 -1.0657 0.9748 0 1
1.5578 8.7988 -1.0614 0.9787 0 1
1.3560 8.8002 -1.0577 0.9822 0 1
1.1555 8.8015 -1.0545 0.9852 0 1
0.9561 8.8029 -1.0518 0.9877 0 1
0.7559 8.7842 -1.0473 0.9897 0 1
0.5617 8.8355 -1.0516 0.9912 0 1
0.3638 8.8368 -1.0506 0.9922 0 1
0.1661 8.8382 -1.0500 0.9927 0 1
-0.0313 8.8078 -1.0462 0.9927 0 1
-0.2283 8.8091 -1.0467 0.9923 0 1
-0.4255 8.8104 -1.0478 0.9913 0 1
-0.6232 8.8118 -1.0493 0.9898 0 1
-0.8245 8.8449 -1.0552 0.9879 0 1
-1.0209 8.8145 -1.0540 0.9854 0 1
-1.2212 8.8158 -1.0572 0.9825 0 1
-1.4200 8.7989 -1.0587 0.9790 0 1
-1.6265 8.8204 -1.0654 0.9751 0 1
-1.8315 8.8218 -1.0703 0.9707 0 1
-2.0385 8.8233 -1.0757 0.9658 0 1
-2.2477 8.8247 -1.0817 0.9604 0 1
-2.4677 8.8561 -1.0921 0.9545 0 1
-2.6552 8.7667 -1.0881 0.3155 0 1
-2.7976 8.5435 -1.0679 0.9414 0 1
-3.0111 8.5450 -1.0762 0.9341 0 1
-3.3473 8.8622 -1.1253 0.9263 0 1
-3.5762 8.8637 -1.1354 0.9181 0 1
-3.8094 8.8653 -1.1462 0.9095 0 1
-4.0472 8.8670 -1.1578 0.9003 0 1
-4.2899 8.8686 -1.1702 0.8908 0 1
-4.9405 5.6474 -0.8913 0.4253 0 9
-4.9285 5.3859 -0.8672 0.7645 0 9
-5.0309 5.2569 -0.8643 0.9995 0 9
-5.2064 5.2025 -0.8743 0.7026 0 9
6.7794 1.6337 -0.9881 0.3891 0 7
6.7661 1.7914 -0.9917 0.3877 0 6
6.7515 1.9500 -0.9957 0.3861 0 7
6.7355 2.1096 -1.0001 0.3844 0 7
6.7183 2.2702 -1.0048 0.3826 0 7
6.6997 2.4321 -1.0099 0.3807 0 7
6.6796 2.5951 -1.0154 0.3787 0 7
6.6582 2.7596 -1.0212 0.3765 0 7
6.6353 2.9255 -1.0275 0.3742 0 7
6.6109 3.0930 -1.0341 0.3718 0 7
6.5849 3.2622 -1.0412 0.3692 0 7
6.5574 3.4332 -1.0488 0.3666 0 7
5.2274 2.8875 -0.8461 0.3019 0 10
5.0248 2.9240 -0.8237 0.3523 0 10
4.6684 2.8581 -0.7756 0.5224 0 10
4.4747 2.8789 -0.7539 0.5427 0 10
4.2726 2.8860 -0.7305 0.5902 0 10
3.8414 2.7217 -0.6671 0.7345 0 10
3.9119 2.9050 -0.6904 0.3344 0 10
3.8470 2.9925 -0.6906 0.8433 0 10
3.7091 3.0207 -0.6778 0.6981 0 10
3.5672 3.0401 -0.6641 0.7131 0 10
3.4300 3.0582 -0.6511 0.7284 0 10
3.2981 3.0756 -0.6390 0.7408 0 10
3.1719 3.0933 -0.6278 0.7634 0 10
3.0511 3.1115 -0.6175 0.7850 0 10
2.9249 3.1193 -0.6059 0.7785 0 10
2.8247 3.1507 -0.5996 0.7163 0 10
2.7485 3.2071 -0.5984 0.4445 0 10
2.6920 3.2871 -0.6020 0.4021 0 10
2.6401 3.3748 -0.6071 0.3987 0 10
2.5868 3.4635 -0.6125 0.3954 0 10
2.5354 3.5579 -0.6190 0.3032 0 10
2.4982 3.6768 -0.6298 0.2979 0 10
2.4594 3.7997 -0.6413 0.2866 0 10
2.4199 3.9285 -0.6538 0.2812 0 10
2.3987 4.0962 -0.6726 0.2027 0 10
2.4183 4.3498 -0.7052 0.1203 0 10
4.4639 8.4696 -1.3565 0.8788 0 1
4.2256 8.4712 -1.3413 0.8887 0 1
3.9925 8.4727 -1.3271 0.8982 0 1
3.7641 8.4743 -1.3138 0.9073 0 1
3.5402 8.4758 -1.3015 0.9159 0 1
3.3203 8.4772 -1.2900 0.9241 0 1
3.1042 8.4787 -1.2793 0.9318 0 1
2.8915 8.4801 -1.2695 0.9390 0 1
2.6820 8.4815 -1.2604 0.9458 0 1
2.4753 8.4829 -1.2521 0.9521 0 1
2.2779 8.5094 -1.2481 0.9579 0 1
2.0756 8.5108 -1.2412 0.9632 0 1
1.9337 8.7766 -1.2734 0.9681 0 1
1.7392 8.8279 -1.2749 0.9725 0 1
1.5301 8.7994 -1.2655 0.9763 0 1
1.3285 8.8007 -1.2611 0.9797 0 1
1.1281 8.8021 -1.2574 0.9826 0 1
0.9288 8.8034 -1.2543 0.9851 0 1
0.7329 8.8347 -1.2561 0.9870 0 1
0.5345 8.8360 -1.2543 0.9884 0 1
0.3366 8.8374 -1.2531 0.9894 0 1
0.1390 8.8387 -1.2525 0.9898 0 1
-0.0584 8.8083 -1.2481 0.9898 0 1
-0.2553 8.8096 -1.2488 0.9892 0 1
-0.4542 8.8427 -1.2546 0.9882 0 1
-0.6528 8.8441 -1.2565 0.9866 0 1
-0.8489 8.8137 -1.2546 0.9846 0 1
-1.0484 8.8150 -1.2578 0.9821 0 1
-1.2489 8.8164 -1.2617 0.9791 0 1
-1.4560 8.8496 -1.2707 0.9756 0 1
-1.6546 8.8210 -1.2716 0.9716 0 1
-1.8599 8.8224 -1.2775 0.9671 0 1
-2.0671 8.8238 -1.2841 0.9622 0 1
-2.2767 8.8253 -1.2914 0.9568 0 1
-2.4972 8.8567 -1.3038 0.9508 0 1
-2.6160 8.5427 -1.2659 0.9445 0 1
-2.8268 8.5441 -1.2751 0.9376 0 1
-3.0408 8.5456 -1.2852 0.9303 0 1
-3.3787 8.8628 -1.3439 0.9225 0 1
-3.6082 8.8644 -1.3560 0.9142 0 1
-3.8419 8.8659 -1.3691 0.9055 0 1
-4.0804 8.8676 -1.3831 0.8964 0 1
-4.2994 8.8191 -1.3901 0.8868 0 1
-4.8571 5.5178 -1.0416 0.8210 0 9
-4.9093 5.3320 -1.0270 0.9989 0 9
-5.0304 5.2242 -1.0276 0.9998 0 9
-5.2500 5.2139 -1.0484 0.1675 0 9
-2.3807 -8.4613 -1.2454 0.9552 0 19
-2.3966 -9.3111 -1.3623 0.2683 0 19
-1.1621 -9.8172 -1.4007 0.9843 0 19
-0.9403 -9.8187 -1.3976 0.9865 0 19
-0.7194 -9.8202 -1.3951 0.9882 0 19
-0.4992 -9.8217 -1.3934 0.9894 0 19
-0.2794 -9.8232 -1.3924 0.9901 0 19
0.1599 -9.8262 -1.3924 0.9901 0 19
0.3797 -9.8276 -1.3935 0.9893 0 19
0.6000 -9.8291 -1.3953 0.9881 0 19
0.8209 -9.8306 -1.3977 0.9864 0 19
0.9164 -8.6408 -1.2312 0.9842 0 9
1.1134 -8.6501 -1.2357 0.2065 0 9
1.2983 -8.5693 -1.2280 0.8583 0 9
1.5090 -8.6503 -1.2442 0.9234 0 9
1.6947 -8.5775 -1.2388 0.9912 0 9
1.8968 -8.5866 -1.2460 0.8969 0 9
2.0484 -8.3793 -1.2222 0.3971 0 9
2.2464 -8.3735 -1.2284 0.4491 0 9
2.4408 -8.3478 -1.2323 0.3230 0 9
2.6524 -8.3724 -1.2444 0.6065 0 9
2.8773 -8.4236 -1.2612 0.8463 0 9
3.0679 -8.3655 -1.2625 0.7406 0 9
3.2934 -8.3950 -1.2777 0.5540 0 9
3.5337 -8.4473 -1.2974 0.2736 0 9
3.7220 -8.3671 -1.2975 0.6770 0 9
3.9417 -8.3531 -1.3087 0.4705 0 9
4.2160 -8.4404 -1.3368 0.5721 0 9
4.4726 -8.4748 -1.3578 0.2552 0 9
4.7519 -8.5363 -1.3843 0.2623 0 8
4.8478 -8.2683 -1.3580 0.2674 0 8
5.0530 -8.1929 -1.3639 0.8756 0 8
5.3004 -8.1791 -1.3810 0.8648 0 8
5.4020 -7.9412 -1.3608 0.2959 0 8
5.4922 -7.6982 -1.3399 0.2869 0 7
5.5714 -7.4512 -1.3183 0.2916 0 7
5.6468 -7.2103 -1.2976 0.2963 0 7
5.7187 -6.9751 -1.2780 0.3008 0 7
5.7871 -6.7453 -1.2593 0.3053 0 7
5.8524 -6.5207 -1.2415 0.3097 0 7
5.9146 -6.3008 -1.2245 0.3140 0 7
5.9738 -6.0855 -1.2083 0.3182 0 7
6.0303 -5.8745 -1.1928 0.3223 0 7
6.0841 -5.6675 -1.1781 0.3263 0 7
6.1354 -5.4643 -1.1641 0.3303 0 7
6.1842 -5.2648 -1.1508 0.3341 0 6
6.2307 -5.0686 -1.1380 0.3378 0 7
6.2750 -4.8757 -1.1259 0.3415 0 7
6.3171 -4.6859 -1.1144 0.3450 0 7
6.3572 -4.4989 -1.1035 0.3484 0 7
6.3953 -4.3146 -1.0931 0.3517 0 7
6.4314 -4.1329 -1.0832 0.3549 0 7
6.4657 -3.9536 -1.0738 0.3580 0 7
6.4982 -3.7767 -1.0649 0.3610 0 7
6.5290 -3.6018 -1.0565 0.3639 0 7
6.5581 -3.4290 -1.0486 0.3667 0 7
6.5856 -3.2581 -1.0411 0.3693 0 7
6.6115 -3.0889 -1.0340 0.3718 0 7
6.6359 -2.9215 -1.0273 0.3742 0 7
6.6587 -2.7556 -1.0211 0.3765 0 7
6.6801 -2.5911 -1.0152 0.3787 0 7
6.7001 -2.4281 -1.0097 0.3808 0 7
6.7187 -2.2663 -1.0047 0.3827 0 7
6.7359 -2.1057 -1.0000 0.3845 0 7
6.7518 -1.9461 -0.9956 0.3862 0 7
6.7664 -1.7875 -0.9916 0.3877 0 7
6.7797 -1.6299 -0.9880 0.3891 0 6
6.7918 -1.4730 -0.9847 0.3904 0 7
6.8026 -1.3170 -0.9817 0.3916 0 7
4.4914 -0.7658 -0.6456 0.2426 24 10
4.2623 -0.6291 -0.6105 0.3889 24 10
4.1625 -0.5196 -0.5944 0.4819 24 10
4.1208 -0.4211 -0.5869 0.5525 24 10
4.0936 -0.3261 -0.5819 0.5620 24 10
4.0709 -0.2328 -0.5777 0.5788 24 10
4.0621 -0.1414 -0.5759 0.5807 24 10
4.0574 -0.0505 -0.5749 0.5992 24 10
4.0571 0.0402 -0.5749 0.5993 24 10
4.0611 0.1311 -0.5757 0.5809 24 10
4.0699 0.2225 -0.5775 0.5791 24 10
4.0906 0.3154 -0.5813 0.5625 24 10
4.1176 0.4103 -0.5863 0.5531 24 10
4.1534 0.5078 -0.5929 0.4831 24 10
4.2479 0.6160 -0.6082 0.3903 24 10
4.4576 0.7485 -0.6404 0.2445 24 10
6.8037 1.2994 -0.9814 0.3917 0 7
6.7931 1.4554 -0.9843 0.3906 0 7
6.7812 1.6121 -0.9876 0.3893 0 7
6.7680 1.7697 -0.9912 0.3879 0 6
6.7536 1.9282 -0.9951 0.3863 0 7
6.7378 2.0876 -0.9994 0.3847 0 7
6.7207 2.2481 -1.0041 0.3829 0 7
6.7023 2.4098 -1.0092 0.3810 0 7
6.6825 2.5727 -1.0146 0.3789 0 7
6.6612 2.7369 -1.0204 0.3768 0 7
6.6385 2.9027 -1.0266 0.3745 0 7
6.6143 3.0699 -1.0332 0.3721 0 7
6.5886 3.2389 -1.0402 0.3696 0 7
6.5613 3.4096 -1.0477 0.3670 0 7
5.2869 2.8992 -0.8543 0.2990 0 10
5.0224 2.9020 -0.8219 0.3531 0 10
5.0409 3.0649 -0.8359 0.3471 0 10
4.5021 2.8771 -0.7570 0.6407 0 10
4.2989 2.8845 -0.7335 0.5878 0 10
3.8588 2.7162 -0.6686 0.3815 0 10
3.8890 2.8695 -0.6848 0.3371 0 10
3.8672 2.9892 -0.6926 0.6970 0 10
3.7292 3.0181 -0.6798 0.6961 0 10
3.5864 3.0376 -0.6659 0.7156 0 10
3.4485 3.0558 -0.6528 0.7265 0 10
3.3160 3.0733 -0.6406 0.7404 0 10
3.1890 3.0909 -0.6293 0.7616 0 10
3.0673 3.1089 -0.6188 0.7833 0 10
2.9409 3.1172 -0.6072 0.7768 0 10
2.8416 3.1501 -0.6011 0.5219 0 10
2.7561 3.1960 -0.5980 0.4448 0 10
2.6994 3.2755 -0.6014 0.4643 0 10
2.6473 3.3627 -0.6064 0.3992 0 10
2.5942 3.4513 -0.6118 0.3958 0 10
2.5404 3.5418 -0.6176 0.3039 0 10
2.5034 3.6603 -0.6283 0.2987 0 10
2.4647 3.7824 -0.6397 0.2874 0 10
2.4255 3.9105 -0.6520 0.2819 0 10
2.3985 4.0672 -0.6690 0.2038 0 10
2.4074 4.2991 -0.6981 0.1215 0 10
4.4971 8.4694 -1.3587 0.8773 0 1
4.2580 8.4710 -1.3434 0.8874 0 1
4.0242 8.4725 -1.3290 0.8970 0 1
3.7952 8.4741 -1.3156 0.9061 0 1
3.5707 8.4756 -1.3031 0.9148 0 1
3.3503 8.4770 -1.2915 0.9230 0 1
3.1337 8.4785 -1.2807 0.9308 0 1
2.9205 8.4799 -1.2708 0.9381 0 1
2.7106 8.4813 -1.2616 0.9449 0 1
2.5035 8.4827 -1.2532 0.9512 0 1
2.3059 8.5092 -1.2491 0.9571 0 1
2.1033 8.5106 -1.2421 0.9625 0 1
1.9620 8.7764 -1.2742 0.9674 0 1
1.7673 8.8277 -1.2756 0.9719 0 1
1.5579 8.7992 -1.2661 0.9758 0 1
1.3561 8.8006 -1.2617 0.9793 0 1
1.1555 8.8019 -1.2578 0.9823 0 1
0.9561 8.8033 -1.2547 0.9848 0 1
0.7602 8.8345 -1.2564 0.9868 0 1
0.5617 8.8359 -1.2545 0.9883 0 1
0.3638 8.8372 -1.2532 0.9893 0 1
0.1661 8.8385 -1.2525 0.9898 0 1
-0.0313 8.8081 -1.2480 0.9898 0 1
-0.2283 8.8095 -1.2486 0.9893 0 1
-0.4270 8.8426 -1.2544 0.9883 0 1
-0.6255 8.8439 -1.2562 0.9869 0 1
-0.8216 8.8135 -1.2542 0.9849 0 1
-1.0209 8.8149 -1.2573 0.9825 0 1
-1.2213 8.8162 -1.2611 0.9795 0 1
-1.4200 8.7993 -1.2629 0.9761 0 1
-1.6266 8.8208 -1.2709 0.9722 0 1
-1.8316 8.8222 -1.2767 0.9678 0 1
-2.0386 8.8236 -1.2831 0.9629 0 1
-2.2478 8.8251 -1.2903 0.9575 0 1
-2.4594 8.8265 -1.2983 0.9517 0 1
-2.6057 8.6032 -1.2737 0.3205 0 1
-2.7977 8.5439 -1.2738 0.9386 0 1
-3.0112 8.5454 -1.2838 0.9313 0 1
-3.3475 8.8625 -1.3423 0.9236 0 1
-3.5764 8.8641 -1.3543 0.9154 0 1
-3.8096 8.8657 -1.3672 0.9067 0 1
-4.0474 8.8674 -1.3811 0.8976 0 1
-4.2659 8.8189 -1.3880 0.8881 0 1
-4.8499 5.5439 -1.0437 0.8194 0 9
-4.8923 5.3464 -1.0268 0.9991 0 9
-5.0141 5.2394 -1.0276 0.9999 0 9
-5.2084 5.2044 -1.0433 0.6807 0 9
6.4164 1.5462 -1.0873 0.4097 0 7
6.4025 1.6952 -1.0911 0.4083 0 7
6.3873 1.8448 -1.0952 0.4067 0 7
6.3707 1.9953 -1.0998 0.4051 0 7
6.3528 2.1467 -1.1047 0.4033 0 7
6.3334 2.2991 -1.1100 0.4013 0 7
6.3126 2.4526 -1.1157 0.3993 0 7
6.2904 2.6072 -1.1217 0.3971 0 7
6.2666 2.7630 -1.1282 0.3948 0 7
6.2413 2.9201 -1.1352 0.3924 0 7
6.2144 3.0787 -1.1425 0.3899 0 7
6.1859 3.2387 -1.1503 0.3873 0 7
5.1658 2.8535 -0.9722 0.4953 0 10
4.9050 2.8543 -0.9349 0.5017 0 10
4.6787 2.8644 -0.9037 0.5206 0 10
4.4510 2.8637 -0.8719 0.8586 0 10
4.2324 2.8587 -0.8414 0.4753 0 10
4.0555 2.8733 -0.8188 0.6281 0 10
3.8874 2.8868 -0.7977 0.6742 0 10
3.7694 2.9322 -0.7867 0.6213 0 10
3.6511 2.9735 -0.7757 0.7041 0 10
3.5265 3.0055 -0.7633 0.7189 0 10
3.3917 3.0240 -0.7486 0.7341 0 10
3.2618 3.0418 -0.7347 0.7465 0 10
3.1373 3.0596 -0.7219 0.7601 0 10
3.0094 3.0690 -0.7081 0.7733 0 10
2.8930 3.0853 -0.6968 0.8045 0 10
2.7851 3.1065 -0.6873 0.8062 0 10
2.6739 3.1201 -0.6769 0.7969 0 10
2.5852 3.1567 -0.6722 0.7390 0 10
2.5124 3.2116 -0.6717 0.4588 0 10
2.4523 3.2833 -0.6751 0.4155 0 10
2.4004 3.3684 -0.6814 0.4409 0 10
2.3491 3.4573 -0.6886 0.4324 0 10
2.2977 3.5499 -0.6966 0.3456 0 10
2.2607 3.6700 -0.7101 0.3395 0 10
2.2284 3.8055 -0.7265 0.3496 0 10
2.1933 3.9452 -0.7436 0.3419 0 10
2.1771 4.1306 -0.7692 0.2432 0 10
4.1767 8.3731 -1.5415 0.2729 0 8
3.9927 8.4732 -1.5431 0.8951 0 1
3.7643 8.4747 -1.5276 0.9041 0 1
3.5404 8.4762 -1.5133 0.9127 0 1
3.3205 8.4776 -1.4999 0.9209 0 1
3.1043 8.4791 -1.4875 0.9285 0 1
2.8916 8.4805 -1.4761 0.9357 0 1
2.6821 8.4819 -1.4655 0.9425 0 1
2.4754 8.4833 -1.4558 0.9488 0 1
2.2780 8.5098 -1.4513 0.9545 0 1
2.0915 8.5758 -1.4542 0.9599 0 1
1.8898 8.5772 -1.4469 0.9647 0 1
1.6900 8.5785 -1.4404 0.9691 0 1
1.4957 8.6012 -1.4382 0.2014 0 1
1.3255 8.7810 -1.4630 0.9763 0 1
1.1320 8.8324 -1.4669 0.9792 0 1
0.9268 8.7837 -1.4551 0.9816 0 1
0.7330 8.8351 -1.4605 0.9836 0 1
0.5346 8.8364 -1.4584 0.9850 0 1
0.3366 8.8377 -1.4570 0.9859 0 1
0.1390 8.8391 -1.4563 0.9864 0 1
-0.0586 8.8404 -1.4564 0.9863 0 1
-0.2563 8.8418 -1.4572 0.9858 0 1
-0.4543 8.8431 -1.4587 0.9847 0 1
-0.6528 8.8445 -1.4610 0.9832 0 1
-0.8490 8.8141 -1.4587 0.9812 0 1
-1.0484 8.8154 -1.4625 0.9787 0 1
-1.2535 8.8486 -1.4723 0.9757 0 1
-1.4561 8.8500 -1.4775 0.9722 0 1
-1.6547 8.8214 -1.4786 0.9682 0 1
-1.8599 8.8228 -1.4854 0.9638 0 1
-2.0672 8.8242 -1.4931 0.9588 0 1
-2.2768 8.8257 -1.5015 0.9534 0 1
-2.4876 8.8230 -1.5102 0.3078 0 1
-2.6162 8.5430 -1.4719 0.9412 0 1
-2.8270 8.5445 -1.4827 0.9343 0 1
-3.0410 8.5460 -1.4943 0.9270 0 1
-3.3788 8.8632 -1.5626 0.9193 0 1
-3.6083 8.8648 -1.5767 0.9110 0 1
-3.8421 8.8664 -1.5919 0.9024 0 1
-4.0806 8.8680 -1.6082 0.8932 0 1
-4.8183 5.4737 -1.2013 0.8248 0 9
-4.8921 5.3132 -1.1898 0.9990 0 9
-5.0136 5.2068 -1.1908 0.9997 0 9
-5.3262 5.2895 -1.2366 0.1949 0 9
-2.3882 -8.4881 -1.4526 0.9519 0 19
-2.3440 -9.1069 -1.5492 0.2734 0 19
-1.1562 -9.7671 -1.6203 0.9809 0 19
-0.9403 -9.8183 -1.6249 0.9831 0 19
-0.7194 -9.8198 -1.6220 0.9848 0 19
-0.4992 -9.8213 -1.6200 0.9860 0 19
-0.2794 -9.8228 -1.6188 0.9868 0 19
-0.0596 -9.8019 -1.6148 0.9870 0 19
0.1419 -8.7228 -1.4372 0.9627 0 9
0.3295 -8.5292 -1.4061 0.4657 0 9
0.5252 -8.6046 -1.4201 0.2816 0 9
0.7145 -8.5558 -1.4144 0.2074 0 9
0.9101 -8.5810 -1.4215 0.9864 0 9
1.0949 -8.5068 -1.4130 0.3449 0 9
1.2809 -8.4548 -1.4087 0.3396 0 9
1.4522 -8.3248 -1.3921 0.3243 0 9
1.6467 -8.3348 -1.3996 0.3503 0 9
1.8288 -8.2787 -1.3967 0.3620 0 9
2.0577 -8.4172 -1.4275 0.2452 0 9
2.2599 -8.4237 -1.4368 0.5556 0 9
2.4504 -8.3806 -1.4384 0.7970 0 9
2.6668 -8.4177 -1.4547 0.7436 0 9
2.8682 -8.3968 -1.4618 0.7400 0 9
3.0271 -8.2543 -1.4484 0.4008 0 9
3.3049 -8.4243 -1.4908 0.2081 0 9
3.4956 -8.3562 -1.4922 0.3960 0 9
3.6964 -8.3097 -1.4983 0.5506 0 9
4.0304 -8.5411 -1.5558 0.8418 0 9
4.1793 -8.3670 -1.5408 0.2730 0 8
4.3249 -8.1951 -1.5265 0.9064 0 8
4.5548 -8.1823 -1.5427 0.8969 0 8
4.7326 -8.0718 -1.5414 0.3027 0 8
4.8353 -7.8400 -1.5174 0.3075 0 8
4.9303 -7.6080 -1.4935 0.2983 0 7
5.0176 -7.3761 -1.4696 0.3031 0 7
5.1009 -7.1496 -1.4469 0.3079 0 7
5.1804 -6.9282 -1.4251 0.3126 0 7
5.2563 -6.7116 -1.4044 0.3172 0 7
5.3288 -6.4995 -1.3846 0.3217 0 7
5.3979 -6.2917 -1.3657 0.3262 0 7
5.4640 -6.0879 -1.3476 0.3306 0 7
5.5271 -5.8880 -1.3304 0.3348 0 7
5.5873 -5.6917 -1.3139 0.3390 0 7
5.6447 -5.4989 -1.2982 0.3431 0 7
5.6996 -5.3093 -1.2832 0.3472 0 7
5.7520 -5.1228 -1.2689 0.3511 0 7
5.8019 -4.9393 -1.2553 0.3549 0 7
5.8495 -4.7585 -1.2422 0.3586 0 7
5.8949 -4.5804 -1.2298 0.3622 0 7
5.9382 -4.4048 -1.2180 0.3657 0 7
5.9794 -4.2315 -1.2067 0.3692 0 7
6.0186 -4.0605 -1.1960 0.3725 0 7
6.0558 -3.8915 -1.1859 0.3757 0 7
6.0912 -3.7246 -1.1762 0.3787 0 7
6.1247 -3.5596 -1.1670 0.3817 0 7
6.1566 -3.3963 -1.1583 0.3846 0 7
6.1867 -3.2348 -1.1501 0.3873 0 7
6.2151 -3.0748 -1.1423 0.3900 0 7
6.2419 -2.9163 -1.1350 0.3925 0 7
6.2672 -2.7592 -1.1281 0.3949 0 7
6.2909 -2.6034 -1.1216 0.3972 0 7
6.3131 -2.4488 -1.1155 0.3993 0 7
6.3339 -2.2954 -1.1098 0.4014 0 7
6.3532 -2.1430 -1.1046 0.4033 0 7
6.3711 -1.9916 -1.0997 0.4051 0 7
6.3877 -1.8411 -1.0951 0.4068 0 6
6.4029 -1.6915 -1.0910 0.4083 0 7
6.4167 -1.5426 -1.0872 0.4097 0 7
6.4293 -1.3944 -1.0838 0.4110 0 7
6.4405 -1.2469 -1.0807 0.4122 0 7
4.3355 -0.7392 -0.7245 0.2098 24 10
4.0868 -0.6032 -0.6805 0.4876 24 10
4.0116 -0.5008 -0.6660 0.4983 24 10
3.9779 -0.4065 -0.6587 0.5751 24 10
3.9537 -0.3149 -0.6534 0.5799 24 10
3.9338 -0.2250 -0.6491 0.5970 24 10
3.9289 -0.1367 -0.6476 0.6164 24 10
3.9264 -0.0488 -0.6469 0.6171 24 10
3.9261 0.0389 -0.6468 0.6172 24 10
3.9286 0.1268 -0.6475 0.6165 24 10
3.9329 0.2150 -0.6489 0.5972 24 10
3.9509 0.3047 -0.6528 0.5804 24 10
3.9752 0.3961 -0.6581 0.5757 24 10
4.0033 0.4894 -0.6644 0.4995 24 10
4.0781 0.5914 -0.6789 0.4888 24 10
4.2930 0.7208 -0.7171 0.2119 24 10
6.4417 1.2302 -1.0804 0.4123 0 7
6.4306 1.3777 -1.0834 0.4112 0 7
6.4182 1.5259 -1.0868 0.4099 0 7
6.4045 1.6746 -1.0905 0.4085 0 7
6.3895 1.8242 -1.0947 0.4070 0 6
6.3731 1.9746 -1.0991 0.4053 0 7
6.3553 2.1259 -1.1040 0.4035 0 7
6.3362 2.2781 -1.1092 0.4016 0 7
6.3156 2.4314 -1.1149 0.3996 0 7
6.2935 2.5858 -1.1209 0.3974 0 7
6.2699 2.7415 -1.1273 0.3952 0 7
6.2449 2.8985 -1.1342 0.3928 0 7
6.2182 3.0568 -1.1415 0.3903 0 7
6.1900 3.2166 -1.1492 0.3876 0 7
5.2022 2.8527 -0.9774 0.4906 0 10
4.9456 2.8576 -0.9410 0.3092 0 10
4.7040 2.8601 -0.9069 0.3931 0 10
4.4748 2.8596 -0.8748 0.5367 0 10
4.2650 2.8618 -0.8461 0.4726 0 10
4.0795 2.8716 -0.8218 0.6258 0 10
3.9089 2.8842 -0.8003 0.6375 0 10
3.7852 2.9258 -0.7881 0.6324 0 10
3.6702 2.9703 -0.7778 0.7022 0 10
3.5454 3.0029 -0.7654 0.7169 0 10
3.4099 3.0215 -0.7505 0.7322 0 10
3.2794 3.0394 -0.7366 0.7446 0 10
3.1542 3.0573 -0.7237 0.7583 0 10
3.0349 3.0760 -0.7119 0.7890 0 10
2.9086 3.0829 -0.6982 0.7827 0 10
2.8000 3.1039 -0.6886 0.9033 0 10
2.6871 3.1160 -0.6778 0.7947 0 10
2.5971 3.1514 -0.6727 0.7481 0 10
2.5200 3.2011 -0.6711 0.4592 0 10
2.4603 3.2731 -0.6746 0.4796 0 10
2.4072 3.3561 -0.6804 0.4416 0 10
2.3564 3.4452 -0.6876 0.4330 0 10
2.3036 3.5352 -0.6951 0.4425 0 10
2.2658 3.6531 -0.7082 0.3404 0 10
2.2332 3.7869 -0.7243 0.3506 0 10
2.1978 3.9248 -0.7410 0.3431 0 10
2.1778 4.1014 -0.7650 0.2445 0 10
2.1788 4.3345 -0.7992 0.1396 0 10
4.0244 8.4729 -1.5453 0.8938 0 1
3.7954 8.4745 -1.5297 0.9029 0 1
3.5709 8.4760 -1.5152 0.9116 0 1
3.3504 8.4774 -1.5017 0.9198 0 1
3.1338 8.4789 -1.4892 0.9275 0 1
2.9206 8.4803 -1.4776 0.9348 0 1
2.7107 8.4817 -1.4669 0.9416 0 1
2.5036 8.4831 -1.4571 0.9479 0 1
2.3060 8.5096 -1.4524 0.9538 0 1
2.1060 8.5215 -1.4461 0.1787 0 1
1.9174 8.5770 -1.4478 0.9641 0 1
1.7174 8.5784 -1.4412 0.9685 0 1
1.5191 8.5797 -1.4354 0.9724 0 1
1.3530 8.7809 -1.4636 0.9759 0 1
1.1595 8.8322 -1.4675 0.9789 0 1
0.9594 8.8335 -1.4638 0.9813 0 1
0.7602 8.8349 -1.4608 0.9833 0 1
0.5618 8.8362 -1.4586 0.9848 0 1
0.3638 8.8376 -1.4571 0.9858 0 1
0.1661 8.8389 -1.4564 0.9863 0 1
-0.0314 8.8402 -1.4563 0.9863 0 1
-0.2291 8.8416 -1.4570 0.9859 0 1
-0.4271 8.8429 -1.4585 0.9849 0 1
-0.6255 8.8443 -1.4606 0.9834 0 1
-0.8217 8.8139 -1.4583 0.9815 0 1
-1.0210 8.8152 -1.4619 0.9791 0 1
-1.2258 8.8484 -1.4716 0.9761 0 1
-1.4282 8.8498 -1.4768 0.9727 0 1
-1.6266 8.8212 -1.4777 0.9688 0 1
-1.8316 8.8226 -1.4844 0.9644 0 1
-2.0386 8.8240 -1.4920 0.9595 0 1
-2.2479 8.8255 -1.5003 0.9542 0 1
-2.4679 8.8569 -1.5147 0.9484 0 1
-2.5874 8.5429 -1.4705 0.9421 0 1
-2.7978 8.5443 -1.4811 0.9353 0 1
-3.0114 8.5458 -1.4927 0.9281 0 1
-3.3476 8.8630 -1.5608 0.9204 0 1
-3.5766 8.8645 -1.5747 0.9122 0 1
-3.8098 8.8661 -1.5897 0.9036 0 1
-4.0476 8.8678 -1.6058 0.8945 0 1
-4.2661 8.8193 -1.6139 0.8850 0 1
-4.8111 5.4995 -1.2037 0.8231 0 9
-4.8751 5.3276 -1.1897 0.9992 0 9
-4.9974 5.2219 -1.1907 0.9998 0 9
-5.2271 5.2231 -1.2173 0.1671 0 9
6.0880 1.4671 -1.1771 0.4301 0 7
6.0737 1.6081 -1.1810 0.4287 0 7
6.0581 1.7497 -1.1852 0.4271 0 6
6.0411 1.8921 -1.1899 0.4255 0 7
6.0227 2.0352 -1.1949 0.4237 0 7
6.0028 2.1791 -1.2003 0.4218 0 7
5.9815 2.3239 -1.2062 0.4197 0 7
5.9587 2.4697 -1.2124 0.4176 0 7
5.9344 2.6165 -1.2190 0.4153 0 7
5.9085 2.7644 -1.2261 0.4129 0 7
5.8811 2.9135 -1.2336 0.4104 0 7
5.8520 3.0638 -1.2416 0.4077 0 7
5.2112 2.8785 -1.1190 0.7864 0 10
4.9068 2.8553 -1.0671 0.7847 0 10
4.7374 2.9004 -1.0441 0.5185 0 10
4.5188 2.9073 -1.0100 0.8561 0 10
4.2193 2.8499 -0.9570 0.4366 0 10
4.0239 2.8509 -0.9269 0.5664 0 10
3.8582 2.8652 -0.9033 0.6579 0 10
3.6991 2.8775 -0.8809 0.6599 0 10
3.5566 2.8965 -0.8622 0.6555 0 10
3.4482 2.9387 -0.8516 0.6521 0 10
3.3390 2.9770 -0.8408 0.6980 0 10
3.2261 3.0085 -0.8291 0.7521 0 10
3.1033 3.0264 -0.8147 0.7834 0 10
2.9761 3.0350 -0.7990 0.7774 0 10
2.8633 3.0536 -0.7868 0.8096 0 10
2.7563 3.0744 -0.7761 0.8114 0 10
2.6487 3.0907 -0.7651 0.8231 0 10
2.5440 3.1064 -0.7547 0.8344 0 10
2.4445 3.1248 -0.7457 0.6604 0 10
2.3617 3.1620 -0.7418 0.7411 0 10
2.2974 3.2239 -0.7441 0.5184 0 10
2.2471 3.3072 -0.7515 0.4951 0 10
2.1987 3.3969 -0.7606 0.4893 0 10
2.1514 3.4926 -0.7710 0.4865 0 10
2.1081 3.5999 -0.7841 0.4082 0 10
2.0681 3.7199 -0.8000 0.4002 0 10
2.0349 3.8609 -0.8203 0.3651 0 10
2.0080 4.0254 -0.8455 0.2984 0 10
1.9878 4.2185 -0.8765 0.3011 0 10
3.6437 8.2032 -1.6871 0.2834 0 8
3.5257 8.4410 -1.7194 0.2781 0 8
3.3206 8.4780 -1.7114 0.9172 0 1
3.1045 8.4795 -1.6973 0.9248 0 1
2.8918 8.4809 -1.6842 0.9320 0 1
2.6822 8.4823 -1.6721 0.9387 0 1
2.4755 8.4837 -1.6611 0.9449 0 1
2.2781 8.5102 -1.6559 0.9507 0 1
2.0916 8.5762 -1.6592 0.9560 0 1
1.8899 8.5776 -1.6509 0.9608 0 1
1.6901 8.5789 -1.6435 0.9652 0 1
1.4920 8.5802 -1.6370 0.9690 0 1
1.2954 8.5816 -1.6313 0.9724 0 1
1.1000 8.5829 -1.6264 0.9753 0 1
0.9057 8.5842 -1.6224 0.9777 0 1
0.7252 8.7420 -1.6488 0.1996 0 1
0.5316 8.7868 -1.6546 0.9810 0 1
0.3366 8.8381 -1.6624 0.9820 0 1
0.1390 8.8395 -1.6617 0.9824 0 1
-0.0586 8.8408 -1.6618 0.9824 0 1
-0.2563 8.8422 -1.6627 0.9818 0 1
-0.4543 8.8435 -1.6644 0.9808 0 1
-0.6528 8.8449 -1.6670 0.9793 0 1
-0.8521 8.8462 -1.6704 0.9773 0 1
-1.0522 8.8476 -1.6747 0.9748 0 1
-1.2464 8.7989 -1.6704 0.9718 0 1
-1.4512 8.8204 -1.6802 0.9683 0 1
-1.6547 8.8218 -1.6871 0.9643 0 1
-1.8600 8.8232 -1.6949 0.9599 0 1
-2.0673 8.8246 -1.7036 0.9550 0 1
-2.2769 8.8261 -1.7133 0.9496 0 1
-2.4824 8.8044 -1.7194 0.3126 0 1
-2.6163 8.5434 -1.6794 0.9374 0 1
-2.8271 8.5449 -1.6917 0.9306 0 1
-3.1534 8.8620 -1.7680 0.9233 0 1
-3.3790 8.8636 -1.7830 0.9156 0 1
-3.6085 8.8652 -1.7991 0.9074 0 1
-3.8423 8.8668 -1.8164 0.8987 0 1
-4.0808 8.8684 -1.8349 0.8897 0 1
-4.7804 5.4307 -1.3599 0.8264 0 9
-4.8748 5.2945 -1.3527 0.9986 0 9
-5.0127 5.2058 -1.3584 0.6884 0 9
-2.3805 -8.4605 -1.6520 0.9482 0 19
-2.2934 -8.9100 -1.7293 0.2783 0 19
-0.4466 -8.7878 -1.6539 0.5372 0 9
-0.2459 -8.6465 -1.6259 0.9880 0 9
-0.0522 -8.5894 -1.6145 0.8262 0 9
0.1382 -8.4942 -1.5968 0.8397 0 9
0.3307 -8.5597 -1.6101 0.9690 0 9
0.5245 -8.5927 -1.6181 0.3295 0 9
0.7069 -8.4655 -1.5967 0.2761 0 9
0.8898 -8.3896 -1.5858 0.2464 0 9
1.0792 -8.3846 -1.5890 0.6115 0 9
1.2566 -8.2942 -1.5768 0.6163 0 9
1.4641 -8.3927 -1.6013 0.8187 0 9
1.6624 -8.4143 -1.6121 0.8169 0 9
1.8519 -8.3832 -1.6137 0.3503 0 9
2.0631 -8.4396 -1.6330 0.3719 0 9
2.2531 -8.3985 -1.6344 0.5289 0 9
2.4435 -8.3572 -1.6366 0.6078 0 9
2.6543 -8.3781 -1.6519 0.5314 0 9
2.8870 -8.4519 -1.6787 0.8099 0 9
3.0464 -8.3067 -1.6630 0.5934 0 9
3.3073 -8.4305 -1.7022 0.8551 0 9
3.5286 -8.4352 -1.7186 0.2782 0 8
3.6480 -8.2008 -1.6871 0.8340 0 8
3.8618 -8.1838 -1.7009 0.9245 0 8
4.0816 -8.1714 -1.7168 0.9159 0 8
4.1966 -7.9518 -1.6900 0.3138 0 8
4.3058 -7.7350 -1.6640 0.3187 0 8
4.4051 -7.5132 -1.6370 0.3092 0 7
4.4997 -7.2958 -1.6112 0.3142 0 7
4.5901 -7.0831 -1.5865 0.3191 0 7
4.6766 -6.8748 -1.5628 0.3239 0 7
4.7593 -6.6708 -1.5402 0.3287 0 7
4.8383 -6.4707 -1.5186 0.3334 0 7
4.9139 -6.2744 -1.4980 0.3380 0 7
4.9862 -6.0817 -1.4782 0.3425 0 7
5.0554 -5.8924 -1.4593 0.3469 0 7
5.1215 -5.7064 -1.4412 0.3513 0 7
5.1848 -5.5234 -1.4239 0.3555 0 7
5.2453 -5.3434 -1.4074 0.3597 0 7
5.3032 -5.1661 -1.3916 0.3638 0 7
5.3585 -4.9915 -1.3765 0.3678 0 7
5.4113 -4.8194 -1.3620 0.3717 0 7
5.4618 -4.6497 -1.3482 0.3755 0 7
5.5099 -4.4823 -1.3351 0.3792 0 7
5.5559 -4.3170 -1.3225 0.3828 0 7
5.5998 -4.1538 -1.3105 0.3863 0 7
5.6416 -3.9925 -1.2991 0.3897 0 7
5.6814 -3.8330 -1.2882 0.3930 0 7
5.7193 -3.6753 -1.2778 0.3962 0 7
5.7553 -3.5193 -1.2680 0.3993 0 7
5.7895 -3.3648 -1.2586 0.4022 0 7
5.8220 -3.2118 -1.2498 0.4051 0 7
5.8527 -3.0602 -1.2414 0.4078 0 7
5.8817 -2.9099 -1.2334 0.4104 0 7
5.9092 -2.7608 -1.2259 0.4130 0 7
5.9350 -2.6129 -1.2189 0.4153 0 7
5.9593 -2.4661 -1.2122 0.4176 0 7
5.9821 -2.3204 -1.2060 0.4198 0 7
6.0033 -2.1756 -1.2002 0.4218 0 7
6.0231 -2.0317 -1.1948 0.4237 0 7
6.0415 -1.8886 -1.1898 0.4255 0 6
6.0585 -1.7463 -1.1851 0.4272 0 7
6.0741 -1.6046 -1.1809 0.4287 0 6
6.0883 -1.4637 -1.1770 0.4301 0 7
6.1012 -1.3233 -1.1734 0.4314 0 7
6.1128 -1.1834 -1.1703 0.4326 0 7
4.1344 -0.7049 -0.7883 0.2903 24 10
3.9776 -0.5871 -0.7557 0.6351 24 10
3.8897 -0.4855 -0.7368 0.7598 24 10
3.8577 -0.3942 -0.7289 0.9128 24 10
3.8296 -0.3050 -0.7221 0.9213 24 10
3.8070 -0.2177 -0.7167 0.9575 24 10
3.8050 -0.1324 -0.7156 0.6339 24 10
3.8027 -0.0473 -0.7148 0.6346 24 10
3.8024 0.0377 -0.7147 0.6347 24 10
3.8047 0.1228 -0.7155 0.6340 24 10
3.8066 0.2081 -0.7166 0.6331 24 10
3.8264 0.2951 -0.7214 0.9223 24 10
3.8545 0.3841 -0.7281 0.9138 24 10
3.8831 0.4748 -0.7353 0.9048 24 10
3.9672 0.5753 -0.7535 0.6369 24 10
4.1036 0.6890 -0.7821 0.2926 24 10
4.4084 0.8419 -0.8436 0.3613 24 10
6.1026 1.3075 -1.1731 0.4316 0 7
6.0898 1.4478 -1.1766 0.4303 0 7
6.0758 1.5887 -1.1804 0.4289 0 7
6.0603 1.7302 -1.1846 0.4274 0 6
6.0435 1.8725 -1.1892 0.4257 0 7
6.0253 2.0155 -1.1942 0.4239 0 7
6.0056 2.1593 -1.1996 0.4220 0 7
5.9846 2.3039 -1.2053 0.4200 0 7
5.9619 2.4496 -1.2115 0.4179 0 7
5.9378 2.5963 -1.2181 0.4156 0 7
5.9122 2.7440 -1.2251 0.4132 0 7
5.8849 2.8930 -1.2326 0.4107 0 7
5.8561 3.0431 -1.2405 0.4081 0 7
5.2109 2.8576 -1.1171 0.7877 0 10
5.0768 2.9334 -1.1021 0.6962 0 10
4.7221 2.8711 -1.0388 0.5830 0 10
4.5222 2.8899 -1.0087 0.8897 0 10
4.2542 2.8545 -0.9629 0.4339 0 10
4.0502 2.8510 -0.9310 0.5639 0 10
3.8803 2.8632 -0.9064 0.6556 0 10
3.7205 2.8758 -0.8839 0.6601 0 10
3.5718 2.8907 -0.8637 0.6543 0 10
3.4627 2.9328 -0.8529 0.6510 0 10
3.3551 2.9730 -0.8426 0.7315 0 10
3.2434 3.0060 -0.8312 0.7503 0 10
3.1196 3.0237 -0.8166 0.7637 0 10
2.9921 3.0327 -0.8008 0.7771 0 10
2.8785 3.0510 -0.7884 0.8080 0 10
2.7713 3.0721 -0.7777 0.8098 0 10
2.6633 3.0885 -0.7666 0.8215 0 10
2.5583 3.1043 -0.7561 0.8329 0 10
2.4557 3.1194 -0.7462 0.8205 0 10
2.3728 3.1568 -0.7423 0.7566 0 10
2.3050 3.2135 -0.7433 0.5190 0 10
2.2502 3.2900 -0.7492 0.5242 0 10
2.2054 3.3844 -0.7593 0.4901 0 10
2.1580 3.4792 -0.7695 0.4875 0 10
2.1134 3.5838 -0.7820 0.4093 0 10
2.0737 3.7032 -0.7978 0.4013 0 10
2.0389 3.8399 -0.8172 0.3665 0 10
2.0105 3.9997 -0.8414 0.3488 0 10
1.9915 4.1930 -0.8725 0.3025 0 10
3.6595 8.1711 -1.6828 0.2841 0 8
3.5422 8.4080 -1.7149 0.2788 0 8
3.3506 8.4778 -1.7134 0.9161 0 1
3.1339 8.4793 -1.6991 0.9238 0 1
2.9208 8.4807 -1.6859 0.9310 0 1
2.7108 8.4821 -1.6737 0.9378 0 1
2.5037 8.4835 -1.6626 0.9441 0 1
2.3061 8.5100 -1.6572 0.9500 0 1
2.1195 8.5760 -1.6605 0.9553 0 1
1.9175 8.5774 -1.6520 0.9602 0 1
1.7174 8.5787 -1.6445 0.9646 0 1
1.5191 8.5801 -1.6378 0.9685 0 1
1.3223 8.5814 -1.6320 0.9720 0 1
1.1268 8.5827 -1.6271 0.9749 0 1
0.9323 8.5840 -1.6229 0.9774 0 1
0.7491 8.7052 -1.6423 0.2004 0 1
0.5586 8.7866 -1.6549 0.9808 0 1
0.3638 8.8379 -1.6626 0.9819 0 1
0.1661 8.8393 -1.6617 0.9824 0 1
-0.0314 8.8406 -1.6617 0.9824 0 1
-0.2291 8.8420 -1.6625 0.9819 0 1
-0.4271 8.8433 -1.6641 0.9810 0 1
-0.6255 8.8447 -1.6666 0.9795 0 1
-0.8246 8.8460 -1.6699 0.9776 0 1
-1.0247 8.8474 -1.6741 0.9751 0 1
-1.2258 8.8488 -1.6791 0.9722 0 1
-1.4283 8.8502 -1.6850 0.9688 0 1
-1.6267 8.8216 -1.6861 0.9649 0 1
-1.8317 8.8230 -1.6937 0.9606 0 1
-2.0387 8.8244 -1.7023 0.9557 0 1
-2.2480 8.8259 -1.7119 0.9504 0 1
-2.4540 8.8072 -1.7185 0.9446 0 1
-2.5876 8.5432 -1.6778 0.9383 0 1
-2.7979 8.5447 -1.6900 0.9315 0 1
-3.1227 8.8618 -1.7661 0.9243 0 1
-3.3478 8.8634 -1.7808 0.9167 0 1
-3.5767 8.8650 -1.7968 0.9085 0 1
-3.8099 8.8666 -1.8139 0.9000 0 1
-4.0477 8.8682 -1.8323 0.8909 0 1
-4.7735 5.4565 -1.3627 0.8248 0 9
-4.8579 5.3087 -1.3526 0.9987 0 9
-4.9814 5.2052 -1.3542 0.7104 0 9
-5.2966 5.2926 -1.4074 0.1946 0 9
5.7892 1.3951 -1.2587 0.4503 0 7
5.7747 1.5289 -1.2627 0.4489 0 7
5.7588 1.6633 -1.2670 0.4473 0 7
5.7415 1.7982 -1.2718 0.4457 0 6
5.7228 1.9338 -1.2769 0.4439 0 7
5.7026 2.0701 -1.2824 0.4420 0 7
5.6810 2.2072 -1.2883 0.4399 0 7
5.6579 2.3450 -1.2946 0.4378 0 7
5.6332 2.4837 -1.3014 0.4355 0 7
5.6070 2.6234 -1.3085 0.4331 0 7
5.5792 2.7640 -1.3161 0.4306 0 7
5.5498 2.9056 -1.3242 0.4280 0 7
5.5187 3.0484 -1.3327 0.4253 0 7
5.0794 2.9558 -1.2423 0.8669 0 10
4.6654 2.8563 -1.1563 0.5161 0 10
4.4813 2.8832 -1.1264 0.9253 0 10
4.2340 2.8599 -1.0800 0.5019 0 10
4.0268 2.8530 -1.0432 0.5634 0 10
3.8406 2.8521 -1.0112 0.5881 0 10
3.6751 2.8588 -0.9842 0.6705 0 10
3.5243 2.8702 -0.9608 0.6820 0 10
3.3799 2.8805 -0.9387 0.7216 0 10
3.2694 2.9150 -0.9259 0.6910 0 10
3.1551 2.9422 -0.9119 0.6837 0 10
3.0552 2.9795 -0.9021 0.7131 0 10
2.9449 3.0032 -0.8891 0.8058 0 10
2.8374 3.0260 -0.8769 0.8140 0 10
2.7296 3.0446 -0.8644 0.8234 0 10
2.6238 3.0616 -0.8523 0.8351 0 10
2.5207 3.0779 -0.8409 0.8464 0 10
2.4194 3.0928 -0.8300 0.8567 0 10
2.3159 3.1008 -0.8181 0.8627 0 10
2.2334 3.1340 -0.8135 0.8026 0 10
2.1636 3.1844 -0.8138 0.7325 0 10
2.1080 3.2568 -0.8201 0.5743 0 10
2.0618 3.3470 -0.8310 0.5164 0 10
2.0188 3.4475 -0.8445 0.5082 0 10
1.9748 3.5520 -0.8591 0.4373 0 10
1.9366 3.6745 -0.8780 0.4279 0 10
1.8995 3.8080 -0.8995 0.3616 0 10
1.8687 3.9658 -0.9267 0.3521 0 10
1.8393 4.1408 -0.9578 0.3169 0 10
1.8207 4.3591 -0.9986 0.1739 0 10
3.1457 8.0315 -1.8233 0.2936 0 8
3.0209 8.2513 -1.8574 0.2882 0 8
2.8903 8.4766 -1.8931 0.2827 0 8
2.6823 8.4827 -1.8806 0.9344 0 1
2.4817 8.5048 -1.8727 0.2032 0 1
2.2782 8.5106 -1.8623 0.9464 0 1
2.0917 8.5766 -1.8661 0.9517 0 1
1.8900 8.5780 -1.8567 0.9565 0 1
1.6902 8.5793 -1.8483 0.9608 0 1
1.4921 8.5806 -1.8410 0.9646 0 1
1.2954 8.5820 -1.8346 0.9680 0 1
1.1001 8.5833 -1.8292 0.9709 0 1
0.9057 8.5846 -1.8247 0.9733 0 1
0.7123 8.5859 -1.8211 0.9752 0 1
0.5195 8.5872 -1.8185 0.9766 0 1
0.3271 8.5885 -1.8168 0.9775 0 1
0.1351 8.5898 -1.8159 0.9780 0 1
-0.0582 8.7912 -1.8583 0.9779 0 1
-0.2556 8.8195 -1.8651 0.1920 0 1
-0.4543 8.8439 -1.8719 0.9763 0 1
-0.6528 8.8452 -1.8748 0.9748 0 1
-0.8521 8.8466 -1.8786 0.9728 0 1
-1.0523 8.8480 -1.8835 0.9703 0 1
-1.2465 8.7993 -1.8786 0.9674 0 1
-1.4562 8.8507 -1.8960 0.9639 0 1
-1.6604 8.8521 -1.9038 0.9600 0 1
-1.8664 8.8536 -1.9126 0.9556 0 1
-2.0674 8.8250 -1.9159 0.9507 0 1
-2.2770 8.8265 -1.9268 0.9453 0 1
-2.4351 8.6368 -1.8968 0.3173 0 1
-2.6164 8.5438 -1.8888 0.9331 0 1
-2.8272 8.5453 -1.9026 0.9264 0 1
-3.1536 8.8624 -1.9884 0.9191 0 1
-3.3791 8.8640 -2.0052 0.9114 0 1
-3.6087 8.8656 -2.0233 0.9033 0 1
-3.8425 8.8672 -2.0428 0.8947 0 1
-4.0702 8.8455 -2.0582 0.4554 0 1
-4.7554 5.4023 -1.5213 0.8503 0 9
-4.8645 5.2833 -1.5181 0.9918 0 9
-5.0232 5.2167 -1.5308 0.6834 0 9
-2.2040 -8.5628 -1.8690 0.2831 0 19
-2.2091 -9.4530 -2.0520 0.2626 0 19
-1.4363 -8.7596 -1.8763 0.8710 0 9
-1.2204 -8.6490 -1.8463 0.4413 0 9
-1.0266 -8.6726 -1.8460 0.8377 0 9
-0.8199 -8.5611 -1.8179 0.3965 0 9
-0.6332 -8.6427 -1.8318 0.0469 0 9
-0.4375 -8.6082 -1.8219 0.9964 0 9
-0.2430 -8.5427 -1.8065 0.4401 0 9
-0.0513 -8.4311 -1.7822 0.0714 0 9
0.1350 -8.3009 -1.7549 0.3074 0 9
0.3238 -8.3818 -1.7731 0.8626 0 9
0.5083 -8.3272 -1.7635 0.1248 0 9
0.7115 -8.5202 -1.8073 0.2905 0 9
0.8793 -8.2905 -1.7623 0.3782 0 9
1.0663 -8.2842 -1.7656 0.5961 0 9
1.2637 -8.3410 -1.7832 0.3833 0 9
1.4553 -8.3424 -1.7900 0.3119 0 9
1.6400 -8.3007 -1.7885 0.5674 0 9
1.8414 -8.3359 -1.8045 0.3778 0 9
2.0557 -8.4092 -1.8299 0.3833 0 9
2.2384 -8.3436 -1.8260 0.4495 0 9
2.4591 -8.4105 -1.8522 0.4526 0 9
2.7083 -8.5488 -1.8955 0.8011 0 9
2.8644 -8.3858 -1.8731 0.5772 0 9
3.0240 -8.2459 -1.8565 0.2883 0 8
3.2105 -8.1836 -1.8582 0.9474 0 8
3.4186 -8.1720 -1.8725 0.9402 0 8
3.5739 -8.0341 -1.8587 0.3194 0 8
3.6937 -7.8277 -1.8296 0.3245 0 8
3.8065 -7.6207 -1.8006 0.3148 0 7
3.9122 -7.4129 -1.7718 0.3199 0 7
4.0133 -7.2094 -1.7441 0.3250 0 7
4.1101 -7.0100 -1.7177 0.3300 0 7
4.2028 -6.8144 -1.6923 0.3349 0 7
4.2916 -6.6224 -1.6681 0.3398 0 7
4.3766 -6.4339 -1.6448 0.3446 0 7
4.4581 -6.2487 -1.6226 0.3493 0 7
4.5362 -6.0666 -1.6012 0.3540 0 7
4.6110 -5.8876 -1.5808 0.3585 0 7
4.6827 -5.7114 -1.5612 0.3630 0 7
4.7513 -5.5380 -1.5424 0.3675 0 7
4.8171 -5.3671 -1.5244 0.3718 0 7
4.8801 -5.1988 -1.5072 0.3760 0 6
4.9404 -5.0327 -1.4907 0.3802 0 7
4.9981 -4.8690 -1.4749 0.3843 0 7
5.0534 -4.7073 -1.4598 0.3882 0 7
5.1063 -4.5478 -1.4454 0.3921 0 7
5.1568 -4.3902 -1.4316 0.3959 0 7
5.2052 -4.2344 -1.4184 0.3996 0 7
5.2514 -4.0803 -1.4057 0.4032 0 7
5.2955 -3.9280 -1.3937 0.4067 0 7
5.3375 -3.7773 -1.3822 0.4101 0 7
5.3776 -3.6281 -1.3712 0.4133 0 7
5.4158 -3.4803 -1.3608 0.4165 0 7
5.4521 -3.3339 -1.3509 0.4196 0 7
5.4867 -3.1888 -1.3414 0.4225 0 7
5.5195 -3.0449 -1.3325 0.4254 0 7
5.5505 -2.9022 -1.3240 0.4281 0 7
5.5799 -2.7605 -1.3159 0.4307 0 7
5.6077 -2.6199 -1.3083 0.4332 0 7
5.6339 -2.4803 -1.3012 0.4356 0 7
5.6585 -2.3416 -1.2945 0.4378 0 7
5.6816 -2.2038 -1.2882 0.4400 0 7
5.7031 -2.0668 -1.2822 0.4420 0 7
5.7233 -1.9305 -1.2768 0.4439 0 7
5.7419 -1.7949 -1.2716 0.4457 0 6
5.7592 -1.6600 -1.2669 0.4474 0 6
5.7750 -1.5256 -1.2626 0.4489 0 7
5.7895 -1.3918 -1.2586 0.4503 0 7
5.8026 -1.2585 -1.2551 0.4516 0 7
4.4024 -0.8523 -0.9479 0.0635 24 10
4.0421 -0.6892 -0.8668 0.2956 24 10
3.9452 -0.5823 -0.8430 0.7435 24 10
3.8827 -0.4847 -0.8271 0.7578 24 10
3.8490 -0.3933 -0.8178 0.9107 24 10
3.8219 -0.3044 -0.8104 0.9490 24 10
3.8087 -0.2178 -0.8064 0.9528 24 10
3.7954 -0.1321 -0.8027 0.9571 24 10
3.7825 -0.0471 -0.7996 0.9536 24 10
3.7820 0.0375 -0.7995 0.9537 24 10
3.7939 0.1224 -0.8024 0.9576 24 10
3.8072 0.2081 -0.8060 0.9533 24 10
3.8204 0.2946 -0.8099 0.9496 24 10
3.8458 0.3832 -0.8170 0.9117 24 10
3.8757 0.4739 -0.8254 0.7594 24 10
3.9381 0.5711 -0.8411 0.7451 24 10
4.0248 0.6758 -0.8627 0.6228 24 10
4.3101 0.8231 -0.9275 0.1707 24 10
5.8040 1.2435 -1.2547 0.4517 0 7
5.7910 1.3767 -1.2582 0.4505 0 7
5.7767 1.5105 -1.2621 0.4491 0 7
5.7610 1.6448 -1.2664 0.4475 0 7
5.7440 1.7797 -1.2711 0.4459 0 6
5.7254 1.9152 -1.2762 0.4441 0 7
5.7055 2.0514 -1.2816 0.4422 0 7
5.6841 2.1883 -1.2875 0.4402 0 7
5.6612 2.3260 -1.2937 0.4381 0 7
5.6367 2.4646 -1.3004 0.4358 0 7
5.6107 2.6041 -1.3075 0.4335 0 7
5.5831 2.7446 -1.3151 0.4310 0 7
5.5539 2.8861 -1.3230 0.4284 0 7
5.5230 3.0287 -1.3315 0.4257 0 7
5.0798 2.9351 -1.2401 0.8684 0 10
4.6974 2.8561 -1.1621 0.5136 0 10
4.4918 2.8705 -1.1268 0.9650 0 10
4.2657 2.8623 -1.0859 0.4563 0 10
4.0533 2.8531 -1.0478 0.5473 0 10
3.8651 2.8519 -1.0153 0.5857 0 10
3.6962 2.8570 -0.9875 0.6683 0 10
3.5447 2.8687 -0.9639 0.6714 0 10
3.3985 2.8784 -0.9414 0.7195 0 10
3.2664 2.8944 -0.9225 0.3247 0 10
3.1687 2.9368 -0.9132 0.6827 0 10
3.0693 2.9749 -0.9035 0.7667 0 10
2.9602 3.0004 -0.8909 0.8042 0 10
2.8525 3.0234 -0.8786 0.8123 0 10
2.7443 3.0422 -0.8660 0.8241 0 10
2.6381 3.0593 -0.8539 0.8335 0 10
2.5347 3.0757 -0.8425 0.8448 0 10
2.4332 3.0908 -0.8315 0.8450 0 10
2.3291 3.0986 -0.8194 0.8613 0 10
2.2438 3.1283 -0.8138 0.7723 0 10
2.1729 3.1770 -0.8136 0.7326 0 10
2.1156 3.2467 -0.8191 0.5750 0 10
2.0680 3.3342 -0.8293 0.4828 0 10
2.0248 3.4336 -0.8426 0.5093 0 10
1.9803 3.5364 -0.8568 0.5009 0 10
1.9420 3.6574 -0.8753 0.4292 0 10
1.9035 3.7869 -0.8959 0.3631 0 10
1.8731 3.9437 -0.9229 0.3535 0 10
1.8431 4.1154 -0.9532 0.3184 0 10
1.8169 4.3128 -0.9892 0.1755 0 10
3.1624 8.0017 -1.8187 0.2943 0 8
3.0384 8.2208 -1.8526 0.2889 0 8
2.9086 8.4454 -1.8881 0.2835 0 8
2.7109 8.4825 -1.8824 0.9336 0 1
2.5038 8.4839 -1.8698 0.9398 0 1
2.3062 8.5104 -1.8638 0.9457 0 1
2.1196 8.5764 -1.8674 0.9510 0 1
1.9176 8.5778 -1.8579 0.9559 0 1
1.7175 8.5791 -1.8494 0.9602 0 1
1.5192 8.5804 -1.8419 0.9641 0 1
1.3224 8.5818 -1.8354 0.9676 0 1
1.1268 8.5831 -1.8299 0.9705 0 1
0.9324 8.5844 -1.8252 0.9730 0 1
0.7388 8.5857 -1.8216 0.9749 0 1
0.5459 8.5870 -1.8188 0.9764 0 1
0.3535 8.5883 -1.8169 0.9774 0 1
0.1614 8.5896 -1.8160 0.9779 0 1
-0.0312 8.7782 -1.8556 0.1986 0 1
-0.2278 8.7923 -1.8591 0.9775 0 1
-0.4271 8.8437 -1.8716 0.9765 0 1
-0.6255 8.8451 -1.8743 0.9751 0 1
-0.8247 8.8464 -1.8781 0.9731 0 1
-1.0247 8.8478 -1.8827 0.9707 0 1
-1.2189 8.7991 -1.8777 0.9678 0 1
-1.4283 8.8506 -1.8950 0.9644 0 1
-1.6323 8.8519 -1.9027 0.9605 0 1
-1.8380 8.8534 -1.9113 0.9562 0 1
-2.0388 8.8248 -1.9145 0.9514 0 1
-2.2481 8.8263 -1.9253 0.9461 0 1
-2.4299 8.7207 -1.9136 0.3145 0 1
-2.5877 8.5436 -1.8870 0.9340 0 1
-2.7981 8.5451 -1.9006 0.9273 0 1
-3.1229 8.8622 -1.9862 0.9202 0 1
-3.3479 8.8638 -2.0028 0.9125 0 1
-3.5769 8.8654 -2.0207 0.9044 0 1
-3.8101 8.8670 -2.0400 0.8959 0 1
-4.0479 8.8686 -2.0607 0.8869 0 1
-4.7476 5.4270 -1.5242 0.8487 0 9
-4.8477 5.2976 -1.5179 0.9922 0 9
-4.9919 5.2162 -1.5262 0.6855 0 9
5.5158 1.3292 -1.3335 0.4702 0 7
5.5012 1.4565 -1.3375 0.4688 0 7
5.4852 1.5842 -1.3418 0.4673 0 7
5.4677 1.7125 -1.3466 0.4656 0 6
5.4489 1.8413 -1.3517 0.4638 0 7
5.4286 1.9706 -1.3573 0.4620 0 7
5.4068 2.1006 -1.3633 0.4599 0 7
5.3835 2.2313 -1.3696 0.4578 0 7
5.3587 2.3627 -1.3764 0.4555 0 7
5.3323 2.4948 -1.3836 0.4532 0 7
5.3044 2.6278 -1.3912 0.4507 0 7
5.2748 2.7617 -1.3993 0.4481 0 7
5.2436 2.8964 -1.4079 0.4454 0 7
4.9342 2.8713 -1.3417 0.5500 0 10
4.6658 2.8565 -1.2858 0.5135 0 10
4.4831 2.8843 -1.2529 0.8665 0 10
4.2517 2.8718 -1.2058 0.4973 0 10
4.0391 2.8617 -1.1634 0.5176 0 10
3.8418 2.8529 -1.1246 0.5720 0 10
3.6671 2.8526 -1.0919 0.6064 0 10
3.5047 2.8542 -1.0623 0.6262 0 10
3.3609 2.8644 -1.0379 0.6859 0 10
3.2227 2.8734 -1.0148 0.7058 0 10
3.0909 2.8824 -0.9933 0.7251 0 10
2.9869 2.9128 -0.9805 0.7558 0 10
2.8944 2.9517 -0.9716 0.7541 0 10
2.8028 2.9890 -0.9630 0.7364 0 10
2.7026 3.0145 -0.9515 0.8312 0 10
2.5988 3.0324 -0.9386 0.8412 0 10
2.4977 3.0499 -0.9265 0.8499 0 10
2.3981 3.0656 -0.9147 0.8600 0 10
2.2910 3.0674 -0.8998 0.8677 0 10
2.2022 3.0902 -0.8918 0.9035 0 10
2.1173 3.1162 -0.8854 0.8778 0 10
2.0455 3.1602 -0.8847 0.7793 0 10
1.9862 3.2244 -0.8900 0.5869 0 10
1.9396 3.3123 -0.9021 0.5059 0 10
1.8987 3.4151 -0.9183 0.5179 0 10
1.8560 3.5215 -0.9356 0.5083 0 10
1.8149 3.6384 -0.9556 0.4635 0 10
1.7715 3.7595 -0.9767 0.4487 0 10
1.7364 3.9092 -1.0053 0.3497 0 10
1.7051 4.0822 -1.0397 0.3437 0 10
1.6674 4.2571 -1.0745 0.3295 0 10
2.8038 7.6583 -1.9167 0.3089 0 8
2.6789 7.8566 -1.9509 0.3035 0 8
2.5484 8.0592 -1.9865 0.2981 0 8
2.4121 8.2663 -2.0238 0.2926 0 8
2.2696 8.4782 -2.0627 0.2871 0 8
2.0918 8.5770 -2.0749 0.9469 0 1
1.8901 8.5783 -2.0645 0.9516 0 1
1.6903 8.5797 -2.0552 0.9559 0 1
1.4921 8.5810 -2.0470 0.9598 0 1
1.2955 8.5823 -2.0399 0.9631 0 1
1.1001 8.5836 -2.0339 0.9660 0 1
0.9058 8.5850 -2.0289 0.9683 0 1
0.7123 8.5863 -2.0249 0.9702 0 1
0.5195 8.5876 -2.0220 0.9717 0 1
0.3272 8.5889 -2.0200 0.9726 0 1
0.1351 8.5902 -2.0191 0.9730 0 1
-0.0569 8.5915 -2.0192 0.9730 0 1
-0.2490 8.5928 -2.0203 0.9724 0 1
-0.4415 8.5941 -2.0225 0.9714 0 1
-0.6344 8.5954 -2.0256 0.9699 0 1
-0.8473 8.7969 -2.0770 0.9679 0 1
-1.0464 8.7983 -2.0824 0.9654 0 1
-1.2536 8.8497 -2.1007 0.9625 0 1
-1.4563 8.8511 -2.1082 0.9590 0 1
-1.6605 8.8525 -2.1168 0.9551 0 1
-1.8665 8.8540 -2.1266 0.9507 0 1
-2.0745 8.8554 -2.1376 0.9459 0 1
-2.2848 8.8568 -2.1497 0.9405 0 1
-2.4086 8.5428 -2.0860 0.9347 0 1
-2.6165 8.5442 -2.1001 0.9284 0 1
-2.8273 8.5457 -2.1155 0.9217 0 1
-3.1537 8.8629 -2.2109 0.9145 0 1
-3.3793 8.8644 -2.2296 0.9068 0 1
-3.6088 8.8660 -2.2497 0.8987 0 1
-3.8427 8.8676 -2.2714 0.8901 0 1
-4.0581 8.8191 -2.2816 0.8812 0 1
-4.6815 5.5642 -1.7090 0.8201 0 9
-4.7330 5.3768 -1.6835 0.7514 0 9
-4.8542 5.2721 -1.6843 0.9912 0 9
-5.0398 5.2339 -1.7077 0.6509 0 9
-2.4513 -8.7122 -2.1271 0.9101 0 9
-2.1848 -8.4884 -2.0600 0.9448 0 19
-2.1590 -9.2385 -2.2298 0.2673 0 19
-1.6054 -8.5847 -2.0526 0.9789 0 9
-1.3840 -8.4405 -2.0102 0.5280 0 9
-1.1973 -8.4851 -2.0139 0.8518 0 9
-0.9902 -8.3648 -1.9796 0.1715 0 9
-0.8186 -8.5476 -2.0181 0.9553 0 9
-0.6166 -8.4164 -1.9833 0.3616 0 9
-0.4292 -8.4446 -1.9872 0.1193 0 9
-0.2399 -8.4351 -1.9832 0.5884 0 9
-0.0507 -8.3270 -1.9571 0.4945 0 9
0.1368 -8.4089 -1.9766 0.7161 0 9
0.3251 -8.4157 -1.9794 0.7182 0 9
0.5132 -8.4074 -1.9796 0.0287 0 9
0.7050 -8.4422 -1.9910 0.5306 0 9
0.8839 -8.3342 -1.9697 0.3105 0 9
1.0811 -8.3991 -1.9903 0.2172 0 9
1.2673 -8.3651 -1.9884 0.3796 0 9
1.4506 -8.3151 -1.9837 0.5490 0 9
1.6622 -8.4133 -2.0155 0.5429 0 9
1.8787 -8.5048 -2.0470 0.9839 0 9
2.0842 -8.5258 -2.0628 0.6916 0 9
2.2731 -8.4730 -2.0618 0.2872 0 8
2.4155 -8.2612 -2.0229 0.2927 0 8
2.5921 -8.1817 -2.0171 0.9655 0 8
2.7910 -8.1709 -2.0293 0.9597 0 8
2.9653 -8.0856 -2.0241 0.3245 0 8
3.0953 -7.8902 -1.9920 0.3297 0 8
3.2200 -7.6973 -1.9610 0.3197 0 7
3.3362 -7.4999 -1.9292 0.3250 0 7
3.4477 -7.3063 -1.8987 0.3302 0 7
3.5546 -7.1162 -1.8695 0.3354 0 7
3.6571 -6.9296 -1.8415 0.3405 0 7
3.7554 -6.7462 -1.8146 0.3455 0 7
3.8497 -6.5660 -1.7888 0.3505 0 7
3.9402 -6.3887 -1.7641 0.3554 0 7
4.0271 -6.2143 -1.7404 0.3603 0 7
4.1104 -6.0426 -1.7176 0.3651 0 7
4.1904 -5.8735 -1.6957 0.3698 0 7
4.2672 -5.7069 -1.6747 0.3744 0 7
4.3408 -5.5427 -1.6546 0.3789 0 7
4.4115 -5.3807 -1.6353 0.3834 0 7
4.4793 -5.2209 -1.6168 0.3878 0 6
4.5443 -5.0633 -1.5990 0.3921 0 7
4.6067 -4.9076 -1.5819 0.3964 0 7
4.6665 -4.7537 -1.5656 0.4005 0 7
4.7238 -4.6018 -1.5499 0.4045 0 7
4.7788 -4.4515 -1.5349 0.4085 0 7
4.8314 -4.3029 -1.5205 0.4124 0 7
4.8817 -4.1559 -1.5068 0.4161 0 7
4.9299 -4.0104 -1.4936 0.4198 0 7
4.9760 -3.8664 -1.4810 0.4234 0 7
5.0200 -3.7237 -1.4690 0.4268 0 7
5.0621 -3.5823 -1.4575 0.4302 0 7
5.1022 -3.4422 -1.4465 0.4335 0 7
5.1404 -3.3033 -1.4361 0.4366 0 7
5.1768 -3.1655 -1.4261 0.4397 0 7
5.2114 -3.0288 -1.4166 0.4426 0 7
5.2443 -2.8931 -1.4077 0.4454 0 7
5.2755 -2.7584 -1.3991 0.4481 0 7
5.3051 -2.6246 -1.3911 0.4507 0 7
5.3330 -2.4916 -1.3834 0.4532 0 7
5.3593 -2.3595 -1.3762 0.4556 0 7
5.3841 -2.2281 -1.3695 0.4579 0 7
5.4073 -2.0974 -1.3631 0.4600 0 7
5.4291 -1.9675 -1.3572 0.4620 0 7
5.4493 -1.8381 -1.3516 0.4639 0 6
5.4682 -1.7093 -1.3465 0.4657 0 7
5.4856 -1.5811 -1.3417 0.4673 0 6
5.5016 -1.4534 -1.3374 0.4688 0 7
5.5162 -1.3261 -1.3334 0.4702 0 7
5.5294 -1.1992 -1.3297 0.4715 0 7
4.3683 -0.8457 -1.0457 0.0637 24 10
4.0027 -0.6825 -0.9543 0.7265 24 10
3.9379 -0.5812 -0.9355 0.7411 24 10
3.8756 -0.4838 -0.9179 0.7553 24 10
3.8403 -0.3924 -0.9073 0.9082 24 10
3.8236 -0.3046 -0.9015 0.9439 24 10
3.8104 -0.2179 -0.8970 0.9476 24 10
3.7971 -0.1321 -0.8929 0.9519 24 10
3.7908 -0.0471 -0.8910 0.9467 24 10
3.7902 0.0376 -0.8908 0.9469 24 10
3.7956 0.1225 -0.8925 0.9524 24 10
3.8089 0.2082 -0.8965 0.9481 24 10
3.8221 0.2947 -0.9009 0.9444 24 10
3.8371 0.3823 -0.9063 0.9092 24 10
3.8687 0.4730 -0.9160 0.7569 24 10
3.9307 0.5700 -0.9335 0.7427 24 10
3.9952 0.6708 -0.9521 0.7282 24 10
4.2830 0.8180 -1.0248 0.1709 24 10
5.5308 1.1850 -1.3294 0.4717 0 7
5.5177 1.3118 -1.3329 0.4704 0 7
5.5033 1.4390 -1.3369 0.4690 0 7
5.4874 1.5667 -1.3412 0.4675 0 7
5.4702 1.6948 -1.3459 0.4659 0 7
5.4515 1.8235 -1.3510 0.4641 0 6
5.4314 1.9528 -1.3565 0.4622 0 7
5.4099 2.0827 -1.3624 0.4602 0 7
5.3868 2.2133 -1.3687 0.4581 0 7
5.3622 2.3446 -1.3754 0.4559 0 7
5.3360 2.4766 -1.3826 0.4535 0 7
5.3083 2.6095 -1.3902 0.4510 0 7
5.2790 2.7432 -1.3982 0.4484 0 7
5.2479 2.8778 -1.4067 0.4457 0 7
4.9407 2.8548 -1.3411 0.4923 0 10
4.7707 2.9006 -1.3122 0.5109 0 10
4.4930 2.8713 -1.2532 0.9228 0 10
4.2816 2.8729 -1.2118 0.5311 0 10
4.0673 2.8630 -1.1690 0.5151 0 10
3.8676 2.8538 -1.1296 0.5343 0 10
3.6905 2.8526 -1.0962 0.5934 0 10
3.5264 2.8539 -1.0662 0.6239 0 10
3.3805 2.8632 -1.0412 0.6927 0 10
3.2414 2.8722 -1.0179 0.6979 0 10
3.1086 2.8811 -0.9961 0.7230 0 10
2.9997 2.9075 -0.9818 0.7547 0 10
2.9068 2.9462 -0.9727 0.7532 0 10
2.8142 2.9829 -0.9638 0.6748 0 10
2.7171 3.0120 -0.9534 0.8296 0 10
2.6128 3.0299 -0.9403 0.8397 0 10
2.5116 3.0476 -0.9282 0.8483 0 10
2.4117 3.0634 -0.9163 0.8585 0 10
2.3083 3.0709 -0.9029 0.7687 0 10
2.2147 3.0876 -0.8930 0.9023 0 10
2.1276 3.1107 -0.8857 0.8775 0 10
2.0541 3.1522 -0.8843 0.9042 0 10
1.9932 3.2135 -0.8887 0.5877 0 10
1.9456 3.2992 -0.9002 0.5070 0 10
1.9044 3.4008 -0.9160 0.5192 0 10
1.8620 3.5067 -0.9331 0.5097 0 10
1.8206 3.6219 -0.9527 0.4649 0 10
1.7776 3.7426 -0.9738 0.4500 0 10
1.7406 3.8864 -1.0008 0.3636 0 10
1.7099 4.0586 -1.0351 0.3318 0 10
1.6725 4.2319 -1.0694 0.3428 0 10
2.8206 7.6314 -1.9121 0.3097 0 8
2.6964 7.8291 -1.9461 0.3043 0 8
2.5667 8.0311 -1.9815 0.2988 0 8
2.4312 8.2376 -2.0186 0.2933 0 8
2.2895 8.4488 -2.0573 0.2878 0 8
2.1197 8.5768 -2.0764 0.9462 0 1
1.9177 8.5782 -2.0658 0.9510 0 1
1.7176 8.5795 -2.0564 0.9554 0 1
1.5193 8.5808 -2.0481 0.9593 0 1
1.3224 8.5821 -2.0408 0.9627 0 1
1.1269 8.5835 -2.0346 0.9656 0 1
0.9324 8.5848 -2.0295 0.9680 0 1
0.7388 8.5861 -2.0254 0.9700 0 1
0.5459 8.5874 -2.0223 0.9715 0 1
0.3535 8.5887 -2.0202 0.9725 0 1
0.1614 8.5900 -2.0192 0.9730 0 1
-0.0306 8.5913 -2.0192 0.9730 0 1
-0.2227 8.5926 -2.0201 0.9725 0 1
-0.4150 8.5939 -2.0221 0.9716 0 1
-0.6079 8.5952 -2.0251 0.9701 0 1
